VERSION .7
FIELDS x y z rgb
SIZE 4 4 4 4
TYPE F F F I
COUNT 1 1 1 1
WIDTH 1313
HEIGHT 1
VIEWPOINT 0 0 0 1 0 0 0
POINTS 1313
DATA ascii
-0.050000 0.060000 0.110000 8989997
-0.050000 0.060000 -0.110000 8989997
-0.050000 -0.060000 -0.110000 8989997
-0.050000 -0.060000 0.110000 8989997
0.050000 -0.060000 -0.110000 8989997
0.050000 -0.060000 0.110000 8989997
0.050000 0.060000 0.120000 8989997
0.050000 0.060000 -0.120000 8989997
-0.050000 0.060000 0.120000 8989997
-0.050000 0.060000 -0.120000 8989997
-0.050000 -0.060000 -0.120000 8989997
-0.050000 -0.060000 0.120000 8989997
0.050000 -0.060000 -0.120000 8989997
0.050000 -0.060000 0.120000 8989997
0.050000 0.060000 0.130000 8989997
0.050000 0.060000 -0.130000 8989997
-0.050000 0.060000 0.130000 8989997
-0.050000 0.060000 -0.130000 8989997
-0.050000 -0.060000 -0.130000 8989997
-0.050000 -0.060000 0.130000 8989997
0.050000 -0.060000 -0.130000 8989997
0.050000 -0.060000 0.130000 8989997
0.060000 0.060000 0.000000 2980941
-0.060000 0.060000 0.000000 2980941
-0.060000 -0.060000 0.000000 2980941
0.060000 -0.060000 -0.000000 2980941
0.060000 0.060000 0.010000 2980941
0.060000 0.060000 -0.010000 2980941
-0.060000 0.060000 0.010000 2980941
-0.060000 0.060000 -0.010000 2980941
-0.060000 -0.060000 -0.010000 2980941
-0.060000 -0.060000 0.010000 2980941
0.060000 -0.060000 -0.010000 2980941
0.060000 -0.060000 0.010000 2980941
0.060000 0.060000 0.020000 2980941
0.060000 0.060000 -0.020000 2980941
-0.060000 0.060000 0.020000 2980941
-0.060000 0.060000 -0.020000 2980941
-0.060000 -0.060000 -0.020000 2980941
-0.060000 -0.060000 0.020000 2980941
0.060000 -0.060000 -0.020000 2980941
0.060000 -0.060000 0.020000 2980941
0.060000 0.060000 0.030000 2980941
0.060000 0.060000 -0.030000 2980941
-0.060000 0.060000 0.030000 2980941
-0.060000 0.060000 -0.030000 2980941
-0.060000 -0.060000 -0.030000 2980941
-0.060000 -0.060000 0.030000 2980941
0.060000 -0.060000 -0.030000 2980941
0.060000 -0.060000 0.030000 2980941
0.060000 0.060000 0.040000 2980941
0.060000 0.060000 -0.040000 2980941
-0.060000 0.060000 0.040000 2980941
-0.060000 0.060000 -0.040000 2980941
-0.060000 -0.060000 -0.040000 2980941
-0.060000 -0.060000 0.040000 2980941
0.060000 -0.060000 -0.040000 2980941
0.060000 -0.060000 0.040000 2980941
0.060000 0.060000 0.050000 2980941
0.060000 0.060000 -0.050000 2980941
-0.060000 0.060000 0.050000 2980941
-0.060000 0.060000 -0.050000 2980941
-0.060000 -0.060000 -0.050000 2980941
-0.060000 -0.060000 0.050000 2980941
0.060000 -0.060000 -0.050000 2980941
0.060000 -0.060000 0.050000 2980941
0.060000 0.060000 0.060000 6320163
0.060000 0.060000 -0.060000 6320163
-0.060000 0.060000 0.060000 6320163
-0.060000 0.060000 -0.060000 6320163
-0.060000 -0.060000 -0.060000 6320163
-0.060000 -0.060000 0.060000 6320163
0.060000 -0.060000 -0.060000 6320163
0.060000 -0.060000 0.060000 6320163
0.060000 0.060000 0.070000 8989997
0.060000 0.060000 -0.070000 8989997
-0.060000 0.060000 0.070000 8989997
-0.060000 0.060000 -0.070000 8989997
-0.060000 -0.060000 -0.070000 8989997
-0.060000 -0.060000 0.070000 8989997
0.060000 -0.060000 -0.070000 8989997
0.060000 -0.060000 0.070000 8989997
0.060000 0.060000 0.080000 8989997
0.060000 0.060000 -0.080000 8989997
-0.060000 0.060000 0.080000 8989997
-0.060000 0.060000 -0.080000 8989997
-0.060000 -0.060000 -0.080000 8989997
-0.060000 -0.060000 0.080000 8989997
0.060000 -0.060000 -0.080000 8989997
0.060000 -0.060000 0.080000 8989997
0.060000 0.060000 0.090000 8989997
0.060000 0.060000 -0.090000 8989997
-0.060000 0.060000 0.090000 8989997
-0.060000 0.060000 -0.090000 8989997
-0.060000 -0.060000 -0.090000 8989997
-0.060000 -0.060000 0.090000 8989997
0.060000 -0.060000 -0.090000 8989997
0.060000 -0.060000 0.090000 8989997
0.060000 0.060000 0.100000 8989997
0.060000 0.060000 -0.100000 8989997
-0.060000 0.060000 0.100000 8989997
-0.060000 0.060000 -0.100000 8989997
-0.060000 -0.060000 -0.100000 8989997
-0.060000 -0.060000 0.100000 8989997
0.060000 -0.060000 -0.100000 8989997
0.060000 -0.060000 0.100000 8989997
0.060000 0.060000 0.110000 8989997
0.060000 0.060000 -0.110000 8989997
-0.060000 0.060000 0.110000 8989997
-0.060000 0.060000 -0.110000 8989997
-0.060000 -0.060000 -0.110000 8989997
-0.060000 -0.060000 0.110000 8989997
0.060000 -0.060000 -0.110000 8989997
0.060000 -0.060000 0.110000 8989997
0.060000 0.060000 0.120000 8989997
0.060000 0.060000 -0.120000 8989997
-0.060000 0.060000 0.120000 8989997
-0.060000 0.060000 -0.120000 8989997
-0.060000 -0.060000 -0.120000 8989997
-0.060000 -0.060000 0.120000 8989997
0.060000 -0.060000 -0.120000 8989997
0.060000 -0.060000 0.120000 8989997
0.060000 0.060000 0.130000 8989997
0.060000 0.060000 -0.130000 8989997
-0.060000 0.060000 0.130000 8989997
-0.060000 0.060000 -0.130000 8989997
-0.060000 -0.060000 -0.130000 8989997
-0.060000 -0.060000 0.130000 8989997
0.060000 -0.060000 -0.130000 8989997
0.060000 -0.060000 0.130000 8989997
0.060000 0.000000 0.000000 8989997
-0.060000 -0.000000 -0.000000 8989997
0.060000 0.000000 0.010000 8989997
0.060000 0.000000 -0.010000 8989997
-0.060000 0.000000 0.010000 8989997
-0.060000 0.000000 -0.010000 8989997
0.060000 0.000000 0.020000 8989997
0.060000 0.000000 -0.020000 8989997
-0.060000 0.000000 0.020000 8989997
-0.060000 0.000000 -0.020000 8989997
0.060000 0.000000 0.030000 8989997
0.060000 0.000000 -0.030000 8989997
-0.060000 0.000000 0.030000 8989997
-0.060000 0.000000 -0.030000 8989997
0.060000 0.000000 0.040000 8989997
0.060000 0.000000 -0.040000 8989997
-0.060000 0.000000 0.040000 8989997
-0.060000 0.000000 -0.040000 8989997
0.060000 0.000000 0.050000 2980941
0.060000 0.000000 -0.050000 2980941
-0.060000 0.000000 0.050000 2980941
-0.060000 0.000000 -0.050000 8989997
0.060000 0.000000 0.060000 6320163
0.060000 0.000000 -0.060000 6320163
-0.060000 0.000000 0.060000 6320163
-0.060000 0.000000 -0.060000 8989997
0.060000 0.000000 0.070000 8989997
0.060000 0.000000 -0.070000 8989997
-0.060000 0.000000 0.070000 8989997
-0.060000 0.000000 -0.070000 8989997
0.060000 0.000000 0.080000 8989997
0.060000 0.000000 -0.080000 8989997
-0.060000 0.000000 0.080000 8989997
-0.060000 0.000000 -0.080000 8989997
0.060000 0.000000 0.090000 8989997
0.060000 0.000000 -0.090000 8989997
-0.060000 0.000000 0.090000 8989997
-0.060000 0.000000 -0.090000 8989997
0.060000 0.000000 0.100000 8989997
0.060000 0.000000 -0.100000 8989997
-0.060000 0.000000 0.100000 8989997
-0.060000 0.000000 -0.100000 8989997
0.060000 0.000000 0.110000 8989997
0.060000 0.000000 -0.110000 8989997
-0.060000 0.000000 0.110000 8989997
-0.060000 0.000000 -0.110000 8989997
0.060000 0.000000 0.120000 8989997
0.060000 0.000000 -0.120000 8989997
-0.060000 0.000000 0.120000 8989997
-0.060000 0.000000 -0.120000 8989997
0.060000 0.000000 0.130000 8989997
0.060000 0.000000 -0.130000 8989997
-0.060000 0.000000 0.130000 8989997
-0.060000 0.000000 -0.130000 8989997
0.060000 0.010000 0.000000 8989997
-0.060000 0.010000 0.000000 8989997
-0.060000 -0.010000 0.000000 8989997
0.060000 -0.010000 -0.000000 8989997
0.060000 0.010000 0.010000 8989997
0.060000 0.010000 -0.010000 8989997
-0.060000 0.010000 0.010000 8989997
-0.060000 0.010000 -0.010000 8989997
-0.060000 -0.010000 -0.010000 8989997
-0.060000 -0.010000 0.010000 8989997
0.060000 -0.010000 -0.010000 8989997
0.060000 -0.010000 0.010000 8989997
0.060000 0.010000 0.020000 8989997
0.060000 0.010000 -0.020000 8989997
-0.060000 0.010000 0.020000 8989997
-0.060000 0.010000 -0.020000 8989997
-0.060000 -0.010000 -0.020000 8989997
-0.060000 -0.010000 0.020000 8989997
0.060000 -0.010000 -0.020000 8989997
0.060000 -0.010000 0.020000 8989997
0.060000 0.010000 0.030000 8989997
0.060000 0.010000 -0.030000 8989997
-0.060000 0.010000 0.030000 8989997
-0.060000 0.010000 -0.030000 8989997
-0.060000 -0.010000 -0.030000 8989997
-0.060000 -0.010000 0.030000 8989997
0.060000 -0.010000 -0.030000 8989997
0.060000 -0.010000 0.030000 8989997
0.060000 0.010000 0.040000 8989997
0.060000 0.010000 -0.040000 8989997
-0.060000 0.010000 0.040000 8989997
-0.060000 0.010000 -0.040000 8989997
-0.060000 -0.010000 -0.040000 8989997
-0.060000 -0.010000 0.040000 8989997
0.060000 -0.010000 -0.040000 8989997
0.060000 -0.010000 0.040000 8989997
0.060000 0.010000 0.050000 2980941
0.060000 0.010000 -0.050000 2980941
-0.060000 0.010000 0.050000 2980941
-0.060000 0.010000 -0.050000 2980941
-0.060000 -0.010000 -0.050000 2980941
-0.060000 -0.010000 0.050000 2980941
0.060000 -0.010000 -0.050000 2980941
0.060000 -0.010000 0.050000 2980941
0.060000 0.010000 0.060000 6320163
0.060000 0.010000 -0.060000 6320163
-0.060000 0.010000 0.060000 6320163
-0.060000 0.010000 -0.060000 6320163
-0.060000 -0.010000 -0.060000 6320163
-0.060000 -0.010000 0.060000 6320163
0.060000 -0.010000 -0.060000 6320163
0.060000 -0.010000 0.060000 6320163
0.060000 0.010000 0.070000 8989997
0.060000 0.010000 -0.070000 8989997
-0.060000 0.010000 0.070000 8989997
-0.060000 0.010000 -0.070000 8989997
-0.060000 -0.010000 -0.070000 8989997
-0.060000 -0.010000 0.070000 8989997
0.060000 -0.010000 -0.070000 8989997
0.060000 -0.010000 0.070000 8989997
0.060000 0.010000 0.080000 8989997
0.060000 0.010000 -0.080000 8989997
-0.060000 0.010000 0.080000 8989997
-0.060000 0.010000 -0.080000 8989997
-0.060000 -0.010000 -0.080000 8989997
-0.060000 -0.010000 0.080000 8989997
0.060000 -0.010000 -0.080000 8989997
0.060000 -0.010000 0.080000 8989997
0.060000 0.010000 0.090000 8989997
0.060000 0.010000 -0.090000 8989997
-0.060000 0.010000 0.090000 8989997
-0.060000 0.010000 -0.090000 8989997
-0.060000 -0.010000 -0.090000 8989997
-0.060000 -0.010000 0.090000 8989997
0.060000 -0.010000 -0.090000 8989997
0.060000 -0.010000 0.090000 8989997
0.060000 0.010000 0.100000 8989997
0.060000 0.010000 -0.100000 8989997
-0.060000 0.010000 0.100000 8989997
-0.060000 0.010000 -0.100000 8989997
-0.060000 -0.010000 -0.100000 8989997
-0.060000 -0.010000 0.100000 8989997
0.060000 -0.010000 -0.100000 8989997
0.060000 -0.010000 0.100000 8989997
0.060000 0.010000 0.110000 8989997
0.060000 0.010000 -0.110000 8989997
-0.060000 0.010000 0.110000 8989997
-0.060000 0.010000 -0.110000 8989997
-0.060000 -0.010000 -0.110000 8989997
-0.060000 -0.010000 0.110000 8989997
0.060000 -0.010000 -0.110000 8989997
0.060000 -0.010000 0.110000 8989997
0.060000 0.010000 0.120000 8989997
0.060000 0.010000 -0.120000 8989997
-0.060000 0.010000 0.120000 8989997
-0.060000 0.010000 -0.120000 8989997
-0.060000 -0.010000 -0.120000 8989997
-0.060000 -0.010000 0.120000 8989997
0.060000 -0.010000 -0.120000 8989997
0.060000 -0.010000 0.120000 8989997
0.060000 0.010000 0.130000 8989997
0.060000 0.010000 -0.130000 8989997
-0.060000 0.010000 0.130000 8989997
-0.060000 0.010000 -0.130000 8989997
-0.060000 -0.010000 -0.130000 8989997
-0.060000 -0.010000 0.130000 8989997
0.060000 -0.010000 -0.130000 8989997
0.060000 -0.010000 0.130000 8989997
0.060000 0.020000 0.000000 8989997
-0.060000 0.020000 0.000000 8989997
-0.060000 -0.020000 0.000000 8989997
0.060000 -0.020000 -0.000000 8989997
0.060000 0.020000 0.010000 8989997
0.060000 0.020000 -0.010000 8989997
-0.060000 0.020000 0.010000 8989997
-0.060000 0.020000 -0.010000 8989997
-0.060000 -0.020000 -0.010000 8989997
-0.060000 -0.020000 0.010000 8989997
0.060000 -0.020000 -0.010000 8989997
0.060000 -0.020000 0.010000 8989997
0.060000 0.020000 0.020000 8989997
0.060000 0.020000 -0.020000 8989997
-0.060000 0.020000 0.020000 8989997
-0.060000 0.020000 -0.020000 8989997
-0.060000 -0.020000 -0.020000 8989997
-0.060000 -0.020000 0.020000 8989997
0.060000 -0.020000 -0.020000 8989997
0.060000 -0.020000 0.020000 8989997
0.060000 0.020000 0.030000 8989997
0.060000 0.020000 -0.030000 8989997
-0.060000 0.020000 0.030000 8989997
-0.060000 0.020000 -0.030000 8989997
-0.060000 -0.020000 -0.030000 8989997
-0.060000 -0.020000 0.030000 8989997
0.060000 -0.020000 -0.030000 8989997
0.060000 -0.020000 0.030000 8989997
0.060000 0.020000 0.040000 8989997
0.060000 0.020000 -0.040000 8989997
-0.060000 0.020000 0.040000 8989997
-0.060000 0.020000 -0.040000 8989997
-0.060000 -0.020000 -0.040000 8989997
-0.060000 -0.020000 0.040000 8989997
0.060000 -0.020000 -0.040000 8989997
0.060000 -0.020000 0.040000 8989997
0.060000 0.020000 0.050000 2980941
0.060000 0.020000 -0.050000 2980941
-0.060000 0.020000 0.050000 2980941
-0.060000 0.020000 -0.050000 2980941
-0.060000 -0.020000 -0.050000 2980941
-0.060000 -0.020000 0.050000 2980941
0.060000 -0.020000 -0.050000 2980941
0.060000 -0.020000 0.050000 2980941
0.060000 0.020000 0.060000 6320163
0.060000 0.020000 -0.060000 6320163
-0.060000 0.020000 0.060000 6320163
-0.060000 0.020000 -0.060000 6320163
-0.060000 -0.020000 -0.060000 6320163
-0.060000 -0.020000 0.060000 6320163
0.060000 -0.020000 -0.060000 6320163
0.060000 -0.020000 0.060000 6320163
0.060000 0.020000 0.070000 8989997
0.060000 0.020000 -0.070000 8989997
-0.060000 0.020000 0.070000 8989997
-0.060000 0.020000 -0.070000 8989997
-0.060000 -0.020000 -0.070000 8989997
-0.060000 -0.020000 0.070000 8989997
0.060000 -0.020000 -0.070000 8989997
0.060000 -0.020000 0.070000 8989997
0.060000 0.020000 0.080000 8989997
0.060000 0.020000 -0.080000 8989997
-0.060000 0.020000 0.080000 8989997
-0.060000 0.020000 -0.080000 8989997
-0.060000 -0.020000 -0.080000 8989997
-0.060000 -0.020000 0.080000 8989997
0.060000 -0.020000 -0.080000 8989997
0.060000 -0.020000 0.080000 8989997
0.060000 0.020000 0.090000 8989997
0.060000 0.020000 -0.090000 8989997
-0.060000 0.020000 0.090000 8989997
-0.060000 0.020000 -0.090000 8989997
-0.060000 -0.020000 -0.090000 8989997
-0.060000 -0.020000 0.090000 8989997
0.060000 -0.020000 -0.090000 8989997
0.060000 -0.020000 0.090000 8989997
0.060000 0.020000 0.100000 8989997
0.060000 0.020000 -0.100000 8989997
-0.060000 0.020000 0.100000 8989997
-0.060000 0.020000 -0.100000 8989997
-0.060000 -0.020000 -0.100000 8989997
-0.060000 -0.020000 0.100000 8989997
0.060000 -0.020000 -0.100000 8989997
0.060000 -0.020000 0.100000 8989997
0.060000 0.020000 0.110000 8989997
0.060000 0.020000 -0.110000 8989997
-0.060000 0.020000 0.110000 8989997
-0.060000 0.020000 -0.110000 8989997
-0.060000 -0.020000 -0.110000 8989997
-0.060000 -0.020000 0.110000 8989997
0.060000 -0.020000 -0.110000 8989997
0.060000 -0.020000 0.110000 8989997
0.060000 0.020000 0.120000 8989997
0.060000 0.020000 -0.120000 8989997
-0.060000 0.020000 0.120000 8989997
-0.060000 0.020000 -0.120000 8989997
-0.060000 -0.020000 -0.120000 8989997
-0.060000 -0.020000 0.120000 8989997
0.060000 -0.020000 -0.120000 8989997
0.060000 -0.020000 0.120000 8989997
0.060000 0.020000 0.130000 8989997
0.060000 0.020000 -0.130000 8989997
-0.060000 0.020000 0.130000 8989997
-0.060000 0.020000 -0.130000 8989997
-0.060000 -0.020000 -0.130000 8989997
-0.060000 -0.020000 0.130000 8989997
0.060000 -0.020000 -0.130000 8989997
0.060000 -0.020000 0.130000 8989997
0.060000 0.030000 0.000000 8989997
-0.060000 0.030000 0.000000 8989997
-0.060000 -0.030000 0.000000 8989997
0.060000 -0.030000 -0.000000 8989997
0.060000 0.030000 0.010000 8989997
0.060000 0.030000 -0.010000 8989997
-0.060000 0.030000 0.010000 8989997
-0.060000 0.030000 -0.010000 8989997
-0.060000 -0.030000 -0.010000 8989997
-0.060000 -0.030000 0.010000 8989997
0.060000 -0.030000 -0.010000 8989997
0.060000 -0.030000 0.010000 8989997
0.060000 0.030000 0.020000 8989997
0.060000 0.030000 -0.020000 8989997
-0.060000 0.030000 0.020000 8989997
-0.060000 0.030000 -0.020000 8989997
-0.060000 -0.030000 -0.020000 8989997
-0.060000 -0.030000 0.020000 8989997
0.060000 -0.030000 -0.020000 8989997
0.060000 -0.030000 0.020000 8989997
0.060000 0.030000 0.030000 8989997
0.060000 0.030000 -0.030000 8989997
-0.060000 0.030000 0.030000 8989997
-0.060000 0.030000 -0.030000 8989997
-0.060000 -0.030000 -0.030000 8989997
-0.060000 -0.030000 0.030000 8989997
0.060000 -0.030000 -0.030000 8989997
0.060000 -0.030000 0.030000 8989997
0.060000 0.030000 0.040000 8989997
0.060000 0.030000 -0.040000 8989997
-0.060000 0.030000 0.040000 8989997
-0.060000 0.030000 -0.040000 8989997
-0.060000 -0.030000 -0.040000 8989997
-0.060000 -0.030000 0.040000 8989997
0.060000 -0.030000 -0.040000 8989997
0.060000 -0.030000 0.040000 8989997
0.060000 0.030000 0.050000 2980941
0.060000 0.030000 -0.050000 2980941
-0.060000 0.030000 0.050000 2980941
-0.060000 0.030000 -0.050000 2980941
-0.060000 -0.030000 -0.050000 2980941
-0.060000 -0.030000 0.050000 2980941
0.060000 -0.030000 -0.050000 2980941
0.060000 -0.030000 0.050000 2980941
0.060000 0.030000 0.060000 6320163
0.060000 0.030000 -0.060000 6320163
-0.060000 0.030000 0.060000 6320163
-0.060000 0.030000 -0.060000 6320163
-0.060000 -0.030000 -0.060000 6320163
-0.060000 -0.030000 0.060000 6320163
0.060000 -0.030000 -0.060000 6320163
0.060000 -0.030000 0.060000 6320163
0.060000 0.030000 0.070000 8989997
0.060000 0.030000 -0.070000 8989997
-0.060000 0.030000 0.070000 8989997
-0.060000 0.030000 -0.070000 8989997
-0.060000 -0.030000 -0.070000 8989997
-0.060000 -0.030000 0.070000 8989997
0.060000 -0.030000 -0.070000 8989997
0.060000 -0.030000 0.070000 8989997
0.060000 0.030000 0.080000 8989997
0.060000 0.030000 -0.080000 8989997
-0.060000 0.030000 0.080000 8989997
-0.060000 0.030000 -0.080000 8989997
-0.060000 -0.030000 -0.080000 8989997
-0.060000 -0.030000 0.080000 8989997
0.060000 -0.030000 -0.080000 8989997
0.060000 -0.030000 0.080000 8989997
0.060000 0.030000 0.090000 8989997
0.060000 0.030000 -0.090000 8989997
-0.060000 0.030000 0.090000 8989997
-0.060000 0.030000 -0.090000 8989997
-0.060000 -0.030000 -0.090000 8989997
-0.060000 -0.030000 0.090000 8989997
0.060000 -0.030000 -0.090000 8989997
0.060000 -0.030000 0.090000 8989997
0.060000 0.030000 0.100000 8989997
0.060000 0.030000 -0.100000 8989997
-0.060000 0.030000 0.100000 8989997
-0.060000 0.030000 -0.100000 8989997
-0.060000 -0.030000 -0.100000 8989997
-0.060000 -0.030000 0.100000 8989997
0.060000 -0.030000 -0.100000 8989997
0.060000 -0.030000 0.100000 8989997
0.060000 0.030000 0.110000 8989997
0.060000 0.030000 -0.110000 8989997
-0.060000 0.030000 0.110000 8989997
-0.060000 0.030000 -0.110000 8989997
-0.060000 -0.030000 -0.110000 8989997
-0.060000 -0.030000 0.110000 8989997
0.060000 -0.030000 -0.110000 8989997
0.060000 -0.030000 0.110000 8989997
0.060000 0.030000 0.120000 8989997
0.060000 0.030000 -0.120000 8989997
-0.060000 0.030000 0.120000 8989997
-0.060000 0.030000 -0.120000 8989997
-0.060000 -0.030000 -0.120000 8989997
-0.060000 -0.030000 0.120000 8989997
0.060000 -0.030000 -0.120000 8989997
0.060000 -0.030000 0.120000 8989997
0.060000 0.030000 0.130000 8989997
0.060000 0.030000 -0.130000 8989997
-0.060000 0.030000 0.130000 8989997
-0.060000 0.030000 -0.130000 8989997
-0.060000 -0.030000 -0.130000 8989997
-0.060000 -0.030000 0.130000 8989997
0.060000 -0.030000 -0.130000 8989997
0.060000 -0.030000 0.130000 8989997
0.060000 0.040000 0.000000 8989997
-0.060000 0.040000 0.000000 8989997
-0.060000 -0.040000 0.000000 8989997
0.060000 -0.040000 -0.000000 8989997
0.060000 0.040000 0.010000 8989997
0.060000 0.040000 -0.010000 8989997
-0.060000 0.040000 0.010000 8989997
-0.060000 0.040000 -0.010000 8989997
-0.060000 -0.040000 -0.010000 8989997
-0.060000 -0.040000 0.010000 8989997
0.060000 -0.040000 -0.010000 8989997
0.060000 -0.040000 0.010000 8989997
0.060000 0.040000 0.020000 8989997
0.060000 0.040000 -0.020000 8989997
-0.060000 0.040000 0.020000 8989997
-0.060000 0.040000 -0.020000 8989997
-0.060000 -0.040000 -0.020000 8989997
-0.060000 -0.040000 0.020000 8989997
0.060000 -0.040000 -0.020000 8989997
0.060000 -0.040000 0.020000 8989997
0.060000 0.040000 0.030000 8989997
0.060000 0.040000 -0.030000 8989997
-0.060000 0.040000 0.030000 8989997
-0.060000 0.040000 -0.030000 8989997
-0.060000 -0.040000 -0.030000 8989997
-0.060000 -0.040000 0.030000 8989997
0.060000 -0.040000 -0.030000 8989997
0.060000 -0.040000 0.030000 8989997
0.060000 0.040000 0.040000 8989997
0.060000 0.040000 -0.040000 8989997
-0.060000 0.040000 0.040000 8989997
-0.060000 0.040000 -0.040000 8989997
-0.060000 -0.040000 -0.040000 8989997
-0.060000 -0.040000 0.040000 8989997
0.060000 -0.040000 -0.040000 8989997
0.060000 -0.040000 0.040000 8989997
0.060000 0.040000 0.050000 2980941
0.060000 0.040000 -0.050000 2980941
-0.060000 0.040000 0.050000 2980941
-0.060000 0.040000 -0.050000 2980941
-0.060000 -0.040000 -0.050000 2980941
-0.060000 -0.040000 0.050000 2980941
0.060000 -0.040000 -0.050000 2980941
0.060000 -0.040000 0.050000 2980941
0.060000 0.040000 0.060000 6320163
0.060000 0.040000 -0.060000 6320163
-0.060000 0.040000 0.060000 6320163
-0.060000 0.040000 -0.060000 6320163
-0.060000 -0.040000 -0.060000 6320163
-0.060000 -0.040000 0.060000 6320163
0.060000 -0.040000 -0.060000 6320163
0.060000 -0.040000 0.060000 6320163
0.060000 0.040000 0.070000 8989997
0.060000 0.040000 -0.070000 8989997
-0.060000 0.040000 0.070000 8989997
-0.060000 0.040000 -0.070000 8989997
-0.060000 -0.040000 -0.070000 8989997
-0.060000 -0.040000 0.070000 8989997
0.060000 -0.040000 -0.070000 8989997
0.060000 -0.040000 0.070000 8989997
0.060000 0.040000 0.080000 8989997
0.060000 0.040000 -0.080000 8989997
-0.060000 0.040000 0.080000 8989997
-0.060000 0.040000 -0.080000 8989997
-0.060000 -0.040000 -0.080000 8989997
-0.060000 -0.040000 0.080000 8989997
0.060000 -0.040000 -0.080000 8989997
0.060000 -0.040000 0.080000 8989997
0.060000 0.040000 0.090000 8989997
0.060000 0.040000 -0.090000 8989997
-0.060000 0.040000 0.090000 8989997
-0.060000 0.040000 -0.090000 8989997
-0.060000 -0.040000 -0.090000 8989997
-0.060000 -0.040000 0.090000 8989997
0.060000 -0.040000 -0.090000 8989997
0.060000 -0.040000 0.090000 8989997
0.060000 0.040000 0.100000 8989997
0.060000 0.040000 -0.100000 8989997
-0.060000 0.040000 0.100000 8989997
-0.060000 0.040000 -0.100000 8989997
-0.060000 -0.040000 -0.100000 8989997
-0.060000 -0.040000 0.100000 8989997
0.060000 -0.040000 -0.100000 8989997
0.060000 -0.040000 0.100000 8989997
0.060000 0.040000 0.110000 8989997
0.060000 0.040000 -0.110000 8989997
-0.060000 0.040000 0.110000 8989997
-0.060000 0.040000 -0.110000 8989997
-0.060000 -0.040000 -0.110000 8989997
-0.060000 -0.040000 0.110000 8989997
0.060000 -0.040000 -0.110000 8989997
0.060000 -0.040000 0.110000 8989997
0.060000 0.040000 0.120000 8989997
0.060000 0.040000 -0.120000 8989997
-0.060000 0.040000 0.120000 8989997
-0.060000 0.040000 -0.120000 8989997
-0.060000 -0.040000 -0.120000 8989997
-0.060000 -0.040000 0.120000 8989997
0.060000 -0.040000 -0.120000 8989997
0.060000 -0.040000 0.120000 8989997
0.060000 0.040000 0.130000 8989997
0.060000 0.040000 -0.130000 8989997
-0.060000 0.040000 0.130000 8989997
-0.060000 0.040000 -0.130000 8989997
-0.060000 -0.040000 -0.130000 8989997
-0.060000 -0.040000 0.130000 8989997
0.060000 -0.040000 -0.130000 8989997
0.060000 -0.040000 0.130000 8989997
0.060000 0.050000 0.000000 8989997
-0.060000 0.050000 0.000000 8989997
-0.060000 -0.050000 0.000000 8989997
0.060000 -0.050000 -0.000000 8989997
0.060000 0.050000 0.010000 8989997
0.060000 0.050000 -0.010000 8989997
-0.060000 0.050000 0.010000 8989997
-0.060000 0.050000 -0.010000 8989997
-0.060000 -0.050000 -0.010000 8989997
-0.060000 -0.050000 0.010000 8989997
0.060000 -0.050000 -0.010000 8989997
0.060000 -0.050000 0.010000 8989997
0.060000 0.050000 0.020000 8989997
0.060000 0.050000 -0.020000 8989997
-0.060000 0.050000 0.020000 8989997
-0.060000 0.050000 -0.020000 8989997
-0.060000 -0.050000 -0.020000 8989997
-0.060000 -0.050000 0.020000 8989997
0.060000 -0.050000 -0.020000 8989997
0.060000 -0.050000 0.020000 8989997
0.060000 0.050000 0.030000 8989997
0.060000 0.050000 -0.030000 8989997
-0.060000 0.050000 0.030000 8989997
-0.060000 0.050000 -0.030000 8989997
-0.060000 -0.050000 -0.030000 8989997
-0.060000 -0.050000 0.030000 8989997
0.060000 -0.050000 -0.030000 8989997
0.060000 -0.050000 0.030000 8989997
0.060000 0.050000 0.040000 8989997
0.060000 0.050000 -0.040000 8989997
-0.060000 0.050000 0.040000 8989997
-0.060000 0.050000 -0.040000 8989997
-0.060000 -0.050000 -0.040000 8989997
-0.060000 -0.050000 0.040000 8989997
0.060000 -0.050000 -0.040000 8989997
0.060000 -0.050000 0.040000 8989997
0.060000 0.050000 0.050000 2980941
0.060000 0.050000 -0.050000 2980941
-0.060000 0.050000 0.050000 2980941
-0.060000 0.050000 -0.050000 2980941
-0.060000 -0.050000 -0.050000 2980941
-0.060000 -0.050000 0.050000 2980941
0.060000 -0.050000 -0.050000 2980941
0.060000 -0.050000 0.050000 2980941
0.060000 0.050000 0.060000 6320163
0.060000 0.050000 -0.060000 6320163
-0.060000 0.050000 0.060000 6320163
-0.060000 0.050000 -0.060000 6320163
-0.060000 -0.050000 -0.060000 6320163
-0.060000 -0.050000 0.060000 6320163
0.060000 -0.050000 -0.060000 6320163
0.060000 -0.050000 0.060000 6320163
0.060000 0.050000 0.070000 8989997
0.060000 0.050000 -0.070000 8989997
-0.060000 0.050000 0.070000 8989997
-0.060000 0.050000 -0.070000 8989997
-0.060000 -0.050000 -0.070000 8989997
-0.060000 -0.050000 0.070000 8989997
0.060000 -0.050000 -0.070000 8989997
0.060000 -0.050000 0.070000 8989997
0.060000 0.050000 0.080000 8989997
0.060000 0.050000 -0.080000 8989997
-0.060000 0.050000 0.080000 8989997
-0.060000 0.050000 -0.080000 8989997
-0.060000 -0.050000 -0.080000 8989997
-0.060000 -0.050000 0.080000 8989997
0.060000 -0.050000 -0.080000 8989997
0.060000 -0.050000 0.080000 8989997
0.060000 0.050000 0.090000 8989997
0.060000 0.050000 -0.090000 8989997
-0.060000 0.050000 0.090000 8989997
-0.060000 0.050000 -0.090000 8989997
-0.060000 -0.050000 -0.090000 8989997
-0.060000 -0.050000 0.090000 8989997
0.060000 -0.050000 -0.090000 8989997
0.060000 -0.050000 0.090000 8989997
0.060000 0.050000 0.100000 8989997
0.060000 0.050000 -0.100000 8989997
-0.060000 0.050000 0.100000 8989997
-0.060000 0.050000 -0.100000 8989997
-0.060000 -0.050000 -0.100000 8989997
-0.060000 -0.050000 0.100000 8989997
0.060000 -0.050000 -0.100000 8989997
0.060000 -0.050000 0.100000 8989997
0.060000 0.050000 0.110000 8989997
0.060000 0.050000 -0.110000 8989997
-0.060000 0.050000 0.110000 8989997
-0.060000 0.050000 -0.110000 8989997
-0.060000 -0.050000 -0.110000 8989997
-0.060000 -0.050000 0.110000 8989997
0.060000 -0.050000 -0.110000 8989997
0.060000 -0.050000 0.110000 8989997
0.060000 0.050000 0.120000 8989997
0.060000 0.050000 -0.120000 8989997
-0.060000 0.050000 0.120000 8989997
-0.060000 0.050000 -0.120000 8989997
-0.060000 -0.050000 -0.120000 8989997
-0.060000 -0.050000 0.120000 8989997
0.060000 -0.050000 -0.120000 8989997
0.060000 -0.050000 0.120000 8989997
0.060000 0.050000 0.130000 8989997
0.060000 0.050000 -0.130000 8989997
-0.060000 0.050000 0.130000 8989997
-0.060000 0.050000 -0.130000 8989997
-0.060000 -0.050000 -0.130000 8989997
-0.060000 -0.050000 0.130000 8989997
0.060000 -0.050000 -0.130000 8989997
0.060000 -0.050000 0.130000 8989997
0.000000 0.000000 0.130000 8989997
-0.000000 -0.000000 -0.130000 8989997
0.000000 0.010000 0.130000 8989997
0.000000 0.010000 -0.130000 8989997
0.000000 -0.010000 -0.130000 8989997
0.000000 -0.010000 0.130000 8989997
0.000000 0.020000 0.130000 8989997
0.000000 0.020000 -0.130000 8989997
0.000000 -0.020000 -0.130000 8989997
0.000000 -0.020000 0.130000 8989997
0.000000 0.030000 0.130000 8989997
0.000000 0.030000 -0.130000 8989997
0.000000 -0.030000 -0.130000 8989997
0.000000 -0.030000 0.130000 8989997
0.000000 0.040000 0.130000 8989997
0.000000 0.040000 -0.130000 8989997
0.000000 -0.040000 -0.130000 8989997
0.000000 -0.040000 0.130000 8989997
0.000000 0.050000 0.130000 8989997
0.000000 0.050000 -0.130000 8989997
0.000000 -0.050000 -0.130000 8989997
0.000000 -0.050000 0.130000 8989997
0.010000 0.000000 0.130000 8989997
-0.010000 0.000000 0.130000 8989997
0.010000 -0.000000 -0.130000 8989997
0.010000 0.010000 0.130000 8989997
0.010000 0.010000 -0.130000 8989997
-0.010000 0.010000 0.130000 8989997
-0.010000 0.010000 -0.130000 8989997
-0.010000 -0.010000 -0.130000 8989997
-0.010000 -0.010000 0.130000 8989997
0.010000 -0.010000 -0.130000 8989997
0.010000 -0.010000 0.130000 8989997
0.010000 0.020000 0.130000 8989997
0.010000 0.020000 -0.130000 8989997
-0.010000 0.020000 0.130000 8989997
-0.010000 0.020000 -0.130000 8989997
-0.010000 -0.020000 -0.130000 8989997
-0.010000 -0.020000 0.130000 8989997
0.010000 -0.020000 -0.130000 8989997
0.010000 -0.020000 0.130000 8989997
0.010000 0.030000 0.130000 8989997
0.010000 0.030000 -0.130000 8989997
-0.010000 0.030000 0.130000 8989997
-0.010000 0.030000 -0.130000 8989997
-0.010000 -0.030000 -0.130000 8989997
-0.010000 -0.030000 0.130000 8989997
0.010000 -0.030000 -0.130000 8989997
0.010000 -0.030000 0.130000 8989997
0.010000 0.040000 0.130000 8989997
0.010000 0.040000 -0.130000 8989997
-0.010000 0.040000 0.130000 8989997
-0.010000 0.040000 -0.130000 8989997
-0.010000 -0.040000 -0.130000 8989997
-0.010000 -0.040000 0.130000 8989997
0.010000 -0.040000 -0.130000 8989997
0.010000 -0.040000 0.130000 8989997
0.010000 0.050000 0.130000 8989997
0.010000 0.050000 -0.130000 8989997
-0.010000 0.050000 0.130000 8989997
-0.010000 0.050000 -0.130000 8989997
-0.010000 -0.050000 -0.130000 8989997
-0.010000 -0.050000 0.130000 8989997
0.010000 -0.050000 -0.130000 8989997
0.010000 -0.050000 0.130000 8989997
0.020000 0.000000 0.130000 8989997
-0.020000 0.000000 0.130000 8989997
0.020000 -0.000000 -0.130000 8989997
0.020000 0.010000 0.130000 8989997
0.020000 0.010000 -0.130000 8989997
-0.020000 0.010000 0.130000 8989997
-0.020000 0.010000 -0.130000 8989997
-0.020000 -0.010000 -0.130000 8989997
-0.020000 -0.010000 0.130000 8989997
0.020000 -0.010000 -0.130000 8989997
0.020000 -0.010000 0.130000 8989997
0.020000 0.020000 0.130000 8989997
0.020000 0.020000 -0.130000 8989997
-0.020000 0.020000 0.130000 8989997
-0.020000 0.020000 -0.130000 8989997
-0.020000 -0.020000 -0.130000 8989997
-0.020000 -0.020000 0.130000 8989997
0.020000 -0.020000 -0.130000 8989997
0.020000 -0.020000 0.130000 8989997
0.020000 0.030000 0.130000 8989997
0.020000 0.030000 -0.130000 8989997
-0.020000 0.030000 0.130000 8989997
-0.020000 0.030000 -0.130000 8989997
-0.020000 -0.030000 -0.130000 8989997
-0.020000 -0.030000 0.130000 8989997
0.020000 -0.030000 -0.130000 8989997
0.020000 -0.030000 0.130000 8989997
0.020000 0.040000 0.130000 8989997
0.020000 0.040000 -0.130000 8989997
-0.020000 0.040000 0.130000 8989997
-0.020000 0.040000 -0.130000 8989997
-0.020000 -0.040000 -0.130000 8989997
-0.020000 -0.040000 0.130000 8989997
0.020000 -0.040000 -0.130000 8989997
0.020000 -0.040000 0.130000 8989997
0.020000 0.050000 0.130000 8989997
0.020000 0.050000 -0.130000 8989997
-0.020000 0.050000 0.130000 8989997
-0.020000 0.050000 -0.130000 8989997
-0.020000 -0.050000 -0.130000 8989997
-0.020000 -0.050000 0.130000 8989997
0.020000 -0.050000 -0.130000 8989997
0.020000 -0.050000 0.130000 8989997
0.030000 0.000000 0.130000 8989997
-0.030000 0.000000 0.130000 8989997
0.030000 -0.000000 -0.130000 8989997
0.030000 0.010000 0.130000 8989997
0.030000 0.010000 -0.130000 8989997
-0.030000 0.010000 0.130000 8989997
-0.030000 0.010000 -0.130000 8989997
-0.030000 -0.010000 -0.130000 8989997
-0.030000 -0.010000 0.130000 8989997
0.030000 -0.010000 -0.130000 8989997
0.030000 -0.010000 0.130000 8989997
0.030000 0.020000 0.130000 8989997
0.030000 0.020000 -0.130000 8989997
-0.030000 0.020000 0.130000 8989997
-0.030000 0.020000 -0.130000 8989997
-0.030000 -0.020000 -0.130000 8989997
-0.030000 -0.020000 0.130000 8989997
0.030000 -0.020000 -0.130000 8989997
0.030000 -0.020000 0.130000 8989997
0.030000 0.030000 0.130000 8989997
0.030000 0.030000 -0.130000 8989997
-0.030000 0.030000 0.130000 8989997
-0.030000 0.030000 -0.130000 8989997
-0.030000 -0.030000 -0.130000 8989997
-0.030000 -0.030000 0.130000 8989997
0.030000 -0.030000 -0.130000 8989997
0.030000 -0.030000 0.130000 8989997
0.030000 0.040000 0.130000 8989997
0.030000 0.040000 -0.130000 8989997
-0.030000 0.040000 0.130000 8989997
-0.030000 0.040000 -0.130000 8989997
-0.030000 -0.040000 -0.130000 8989997
-0.030000 -0.040000 0.130000 8989997
0.030000 -0.040000 -0.130000 8989997
0.030000 -0.040000 0.130000 8989997
0.030000 0.050000 0.130000 8989997
0.030000 0.050000 -0.130000 8989997
-0.030000 0.050000 0.130000 8989997
-0.030000 0.050000 -0.130000 8989997
-0.030000 -0.050000 -0.130000 8989997
-0.030000 -0.050000 0.130000 8989997
0.030000 -0.050000 -0.130000 8989997
0.030000 -0.050000 0.130000 8989997
0.040000 0.000000 0.130000 8989997
-0.040000 0.000000 0.130000 8989997
0.040000 -0.000000 -0.130000 8989997
0.040000 0.010000 0.130000 8989997
0.040000 0.010000 -0.130000 8989997
-0.040000 0.010000 0.130000 8989997
-0.040000 0.010000 -0.130000 8989997
-0.040000 -0.010000 -0.130000 8989997
-0.040000 -0.010000 0.130000 8989997
0.040000 -0.010000 -0.130000 8989997
0.040000 -0.010000 0.130000 8989997
0.040000 0.020000 0.130000 8989997
0.040000 0.020000 -0.130000 8989997
-0.040000 0.020000 0.130000 8989997
-0.040000 0.020000 -0.130000 8989997
-0.040000 -0.020000 -0.130000 8989997
-0.040000 -0.020000 0.130000 8989997
0.040000 -0.020000 -0.130000 8989997
0.040000 -0.020000 0.130000 8989997
0.040000 0.030000 0.130000 8989997
0.040000 0.030000 -0.130000 8989997
-0.040000 0.030000 0.130000 8989997
-0.040000 0.030000 -0.130000 8989997
-0.040000 -0.030000 -0.130000 8989997
-0.040000 -0.030000 0.130000 8989997
0.040000 -0.030000 -0.130000 8989997
0.040000 -0.030000 0.130000 8989997
0.040000 0.040000 0.130000 8989997
0.040000 0.040000 -0.130000 8989997
-0.040000 0.040000 0.130000 8989997
-0.040000 0.040000 -0.130000 8989997
-0.040000 -0.040000 -0.130000 8989997
-0.040000 -0.040000 0.130000 8989997
0.040000 -0.040000 -0.130000 8989997
0.040000 -0.040000 0.130000 8989997
0.040000 0.050000 0.130000 8989997
0.040000 0.050000 -0.130000 8989997
-0.040000 0.050000 0.130000 8989997
-0.040000 0.050000 -0.130000 8989997
-0.040000 -0.050000 -0.130000 8989997
-0.040000 -0.050000 0.130000 8989997
0.040000 -0.050000 -0.130000 8989997
0.040000 -0.050000 0.130000 8989997
0.050000 0.000000 0.130000 8989997
-0.050000 0.000000 0.130000 8989997
0.050000 -0.000000 -0.130000 8989997
0.050000 0.010000 0.130000 8989997
0.050000 0.010000 -0.130000 8989997
-0.050000 0.010000 0.130000 8989997
-0.050000 0.010000 -0.130000 8989997
-0.050000 -0.010000 -0.130000 8989997
-0.050000 -0.010000 0.130000 8989997
0.050000 -0.010000 -0.130000 8989997
0.050000 -0.010000 0.130000 8989997
0.050000 0.020000 0.130000 8989997
0.050000 0.020000 -0.130000 8989997
-0.050000 0.020000 0.130000 8989997
-0.050000 0.020000 -0.130000 8989997
-0.050000 -0.020000 -0.130000 8989997
-0.050000 -0.020000 0.130000 8989997
0.050000 -0.020000 -0.130000 8989997
0.050000 -0.020000 0.130000 8989997
0.050000 0.030000 0.130000 8989997
0.050000 0.030000 -0.130000 8989997
-0.050000 0.030000 0.130000 8989997
-0.050000 0.030000 -0.130000 8989997
-0.050000 -0.030000 -0.130000 8989997
-0.050000 -0.030000 0.130000 8989997
0.050000 -0.030000 -0.130000 8989997
0.050000 -0.030000 0.130000 8989997
0.050000 0.040000 0.130000 8989997
0.050000 0.040000 -0.130000 8989997
-0.050000 0.040000 0.130000 8989997
-0.050000 0.040000 -0.130000 8989997
-0.050000 -0.040000 -0.130000 8989997
-0.050000 -0.040000 0.130000 8989997
0.050000 -0.040000 -0.130000 8989997
0.050000 -0.040000 0.130000 8989997
0.050000 0.050000 0.130000 8989997
0.050000 0.050000 -0.130000 8989997
-0.050000 0.050000 0.130000 8989997
-0.050000 0.050000 -0.130000 8989997
-0.050000 -0.050000 -0.130000 8989997
-0.050000 -0.050000 0.130000 8989997
0.050000 -0.050000 -0.130000 8989997
0.050000 -0.050000 0.130000 8989997
0.000000 0.075000 0.000000 6106473
-0.000000 -0.075000 -0.000000 6106473
0.000000 0.075000 0.010000 6106473
0.000000 0.075000 -0.010000 6106473
0.000000 -0.075000 -0.010000 6106473
0.000000 -0.075000 0.010000 6106473
0.000000 0.075000 0.020000 6106473
0.000000 0.075000 -0.020000 6106473
0.000000 -0.075000 -0.020000 6106473
0.000000 -0.075000 0.020000 6106473
0.000000 0.075000 0.030000 6106473
0.000000 0.075000 -0.030000 6106473
0.000000 -0.075000 -0.030000 6106473
0.000000 -0.075000 0.030000 6106473
0.000000 0.075000 0.040000 6106473
0.000000 0.075000 -0.040000 6106473
0.000000 -0.075000 -0.040000 6106473
0.000000 -0.075000 0.040000 6106473
0.000000 0.075000 0.050000 6106473
0.000000 0.075000 -0.050000 6106473
0.000000 -0.075000 -0.050000 6106473
0.000000 -0.075000 0.050000 6106473
0.000000 0.075000 0.060000 6320163
0.000000 0.075000 -0.060000 6320163
0.000000 -0.075000 -0.060000 6320163
0.000000 -0.075000 0.060000 6320163
0.010000 0.075000 0.000000 6106473
-0.010000 0.075000 0.000000 6106473
-0.010000 -0.075000 0.000000 6106473
0.010000 -0.075000 -0.000000 6106473
0.010000 0.075000 0.010000 6106473
0.010000 0.075000 -0.010000 6106473
-0.010000 0.075000 0.010000 6106473
-0.010000 0.075000 -0.010000 6106473
-0.010000 -0.075000 -0.010000 6106473
-0.010000 -0.075000 0.010000 6106473
0.010000 -0.075000 -0.010000 6106473
0.010000 -0.075000 0.010000 6106473
0.010000 0.075000 0.020000 6106473
0.010000 0.075000 -0.020000 6106473
-0.010000 0.075000 0.020000 6106473
-0.010000 0.075000 -0.020000 6106473
-0.010000 -0.075000 -0.020000 6106473
-0.010000 -0.075000 0.020000 6106473
0.010000 -0.075000 -0.020000 6106473
0.010000 -0.075000 0.020000 6106473
0.010000 0.075000 0.030000 6106473
0.010000 0.075000 -0.030000 6106473
-0.010000 0.075000 0.030000 6106473
-0.010000 0.075000 -0.030000 6106473
-0.010000 -0.075000 -0.030000 6106473
-0.010000 -0.075000 0.030000 6106473
0.010000 -0.075000 -0.030000 6106473
0.010000 -0.075000 0.030000 6106473
0.010000 0.075000 0.040000 6106473
0.010000 0.075000 -0.040000 6106473
-0.010000 0.075000 0.040000 6106473
-0.010000 0.075000 -0.040000 6106473
-0.010000 -0.075000 -0.040000 6106473
-0.010000 -0.075000 0.040000 6106473
0.010000 -0.075000 -0.040000 6106473
0.010000 -0.075000 0.040000 6106473
0.010000 0.075000 0.050000 6106473
0.010000 0.075000 -0.050000 6106473
-0.010000 0.075000 0.050000 6106473
-0.010000 0.075000 -0.050000 6106473
-0.010000 -0.075000 -0.050000 6106473
-0.010000 -0.075000 0.050000 6106473
0.010000 -0.075000 -0.050000 6106473
0.010000 -0.075000 0.050000 6106473
0.010000 0.075000 0.060000 6320163
0.010000 0.075000 -0.060000 6320163
-0.010000 0.075000 0.060000 6320163
-0.010000 0.075000 -0.060000 6320163
-0.010000 -0.075000 -0.060000 6320163
-0.010000 -0.075000 0.060000 6320163
0.010000 -0.075000 -0.060000 6320163
0.010000 -0.075000 0.060000 6320163
0.020000 0.075000 0.000000 6106473
-0.020000 0.075000 0.000000 6106473
-0.020000 -0.075000 0.000000 6106473
0.020000 -0.075000 -0.000000 6106473
0.020000 0.075000 0.010000 6106473
0.020000 0.075000 -0.010000 6106473
-0.020000 0.075000 0.010000 6106473
-0.020000 0.075000 -0.010000 6106473
-0.020000 -0.075000 -0.010000 6106473
-0.020000 -0.075000 0.010000 6106473
0.020000 -0.075000 -0.010000 6106473
0.020000 -0.075000 0.010000 6106473
0.020000 0.075000 0.020000 6106473
0.020000 0.075000 -0.020000 6106473
-0.020000 0.075000 0.020000 6106473
-0.020000 0.075000 -0.020000 6106473
-0.020000 -0.075000 -0.020000 6106473
-0.020000 -0.075000 0.020000 6106473
0.020000 -0.075000 -0.020000 6106473
0.020000 -0.075000 0.020000 6106473
0.020000 0.075000 0.030000 6106473
0.020000 0.075000 -0.030000 6106473
-0.020000 0.075000 0.030000 6106473
-0.020000 0.075000 -0.030000 6106473
-0.020000 -0.075000 -0.030000 6106473
-0.020000 -0.075000 0.030000 6106473
0.020000 -0.075000 -0.030000 6106473
0.020000 -0.075000 0.030000 6106473
0.020000 0.075000 0.040000 6106473
0.020000 0.075000 -0.040000 6106473
-0.020000 0.075000 0.040000 6106473
-0.020000 0.075000 -0.040000 6106473
-0.020000 -0.075000 -0.040000 6106473
-0.020000 -0.075000 0.040000 6106473
0.020000 -0.075000 -0.040000 6106473
0.020000 -0.075000 0.040000 6106473
0.020000 0.075000 0.050000 6106473
0.020000 0.075000 -0.050000 6106473
-0.020000 0.075000 0.050000 6106473
-0.020000 0.075000 -0.050000 6106473
-0.020000 -0.075000 -0.050000 6106473
-0.020000 -0.075000 0.050000 6106473
0.020000 -0.075000 -0.050000 6106473
0.020000 -0.075000 0.050000 6106473
0.020000 0.075000 0.060000 6320163
0.020000 0.075000 -0.060000 6320163
-0.020000 0.075000 0.060000 6320163
-0.020000 0.075000 -0.060000 6320163
-0.020000 -0.075000 -0.060000 6320163
-0.020000 -0.075000 0.060000 6320163
0.020000 -0.075000 -0.060000 6320163
0.020000 -0.075000 0.060000 6320163
0.030000 0.075000 0.000000 6106473
-0.030000 0.075000 0.000000 6106473
-0.030000 -0.075000 0.000000 6106473
0.030000 -0.075000 -0.000000 6106473
0.030000 0.075000 0.010000 6106473
0.030000 0.075000 -0.010000 6106473
-0.030000 0.075000 0.010000 6106473
-0.030000 0.075000 -0.010000 6106473
-0.030000 -0.075000 -0.010000 6106473
-0.030000 -0.075000 0.010000 6106473
0.030000 -0.075000 -0.010000 6106473
0.030000 -0.075000 0.010000 6106473
0.030000 0.075000 0.020000 6106473
0.030000 0.075000 -0.020000 6106473
-0.030000 0.075000 0.020000 6106473
-0.030000 0.075000 -0.020000 6106473
-0.030000 -0.075000 -0.020000 6106473
-0.030000 -0.075000 0.020000 6106473
0.030000 -0.075000 -0.020000 6106473
0.030000 -0.075000 0.020000 6106473
0.030000 0.075000 0.030000 6106473
0.030000 0.075000 -0.030000 6106473
-0.030000 0.075000 0.030000 6106473
-0.030000 0.075000 -0.030000 6106473
-0.030000 -0.075000 -0.030000 6106473
-0.030000 -0.075000 0.030000 6106473
0.030000 -0.075000 -0.030000 6106473
0.030000 -0.075000 0.030000 6106473
0.030000 0.075000 0.040000 6106473
0.030000 0.075000 -0.040000 6106473
-0.030000 0.075000 0.040000 6106473
-0.030000 0.075000 -0.040000 6106473
-0.030000 -0.075000 -0.040000 6106473
-0.030000 -0.075000 0.040000 6106473
0.030000 -0.075000 -0.040000 6106473
0.030000 -0.075000 0.040000 6106473
0.030000 0.075000 0.050000 6106473
0.030000 0.075000 -0.050000 6106473
-0.030000 0.075000 0.050000 6106473
-0.030000 0.075000 -0.050000 6106473
-0.030000 -0.075000 -0.050000 6106473
-0.030000 -0.075000 0.050000 6106473
0.030000 -0.075000 -0.050000 6106473
0.030000 -0.075000 0.050000 6106473
0.030000 0.075000 0.060000 6320163
0.030000 0.075000 -0.060000 6320163
-0.030000 0.075000 0.060000 6320163
-0.030000 0.075000 -0.060000 6320163
-0.030000 -0.075000 -0.060000 6320163
-0.030000 -0.075000 0.060000 6320163
0.030000 -0.075000 -0.060000 6320163
0.030000 -0.075000 0.060000 6320163
0.040000 0.075000 0.000000 6106473
-0.040000 0.075000 0.000000 6106473
-0.040000 -0.075000 0.000000 6106473
0.040000 -0.075000 -0.000000 6106473
0.040000 0.075000 0.010000 6106473
0.040000 0.075000 -0.010000 6106473
-0.040000 0.075000 0.010000 6106473
-0.040000 0.075000 -0.010000 6106473
-0.040000 -0.075000 -0.010000 6106473
-0.040000 -0.075000 0.010000 6106473
0.040000 -0.075000 -0.010000 6106473
0.040000 -0.075000 0.010000 6106473
0.040000 0.075000 0.020000 6106473
0.040000 0.075000 -0.020000 6106473
-0.040000 0.075000 0.020000 6106473
-0.040000 0.075000 -0.020000 6106473
-0.040000 -0.075000 -0.020000 6106473
-0.040000 -0.075000 0.020000 6106473
0.040000 -0.075000 -0.020000 6106473
0.040000 -0.075000 0.020000 6106473
0.040000 0.075000 0.030000 6106473
0.040000 0.075000 -0.030000 6106473
-0.040000 0.075000 0.030000 6106473
-0.040000 0.075000 -0.030000 6106473
-0.040000 -0.075000 -0.030000 6106473
-0.040000 -0.075000 0.030000 6106473
0.040000 -0.075000 -0.030000 6106473
0.040000 -0.075000 0.030000 6106473
0.040000 0.075000 0.040000 6106473
0.040000 0.075000 -0.040000 6106473
-0.040000 0.075000 0.040000 6106473
-0.040000 0.075000 -0.040000 6106473
-0.040000 -0.075000 -0.040000 6106473
-0.040000 -0.075000 0.040000 6106473
0.040000 -0.075000 -0.040000 6106473
0.040000 -0.075000 0.040000 6106473
0.040000 0.075000 0.050000 6106473
0.040000 0.075000 -0.050000 6106473
-0.040000 0.075000 0.050000 6106473
-0.040000 0.075000 -0.050000 6106473
-0.040000 -0.075000 -0.050000 6106473
-0.040000 -0.075000 0.050000 6106473
0.040000 -0.075000 -0.050000 6106473
0.040000 -0.075000 0.050000 6106473
0.040000 0.075000 0.060000 6320163
0.040000 0.075000 -0.060000 6320163
-0.040000 0.075000 0.060000 6320163
-0.040000 0.075000 -0.060000 6320163
-0.040000 -0.075000 -0.060000 6320163
-0.040000 -0.075000 0.060000 6320163
0.040000 -0.075000 -0.060000 6320163
0.040000 -0.075000 0.060000 6320163
0.050000 0.075000 0.000000 6320163
-0.050000 0.075000 0.000000 6320163
-0.050000 -0.075000 0.000000 6320163
0.050000 -0.075000 -0.000000 6320163
0.050000 0.075000 0.010000 6320163
0.050000 0.075000 -0.010000 6320163
-0.050000 0.075000 0.010000 6320163
-0.050000 0.075000 -0.010000 6320163
-0.050000 -0.075000 -0.010000 6320163
-0.050000 -0.075000 0.010000 6320163
0.050000 -0.075000 -0.010000 6320163
0.050000 -0.075000 0.010000 6320163
0.050000 0.075000 0.020000 6320163
0.050000 0.075000 -0.020000 6320163
-0.050000 0.075000 0.020000 6320163
-0.050000 0.075000 -0.020000 6320163
-0.050000 -0.075000 -0.020000 6320163
-0.050000 -0.075000 0.020000 6320163
0.050000 -0.075000 -0.020000 6320163
0.050000 -0.075000 0.020000 6320163
0.050000 0.075000 0.030000 6320163
0.050000 0.075000 -0.030000 6320163
-0.050000 0.075000 0.030000 6320163
-0.050000 0.075000 -0.030000 6320163
-0.050000 -0.075000 -0.030000 6320163
-0.050000 -0.075000 0.030000 6320163
0.050000 -0.075000 -0.030000 6320163
0.050000 -0.075000 0.030000 6320163
0.050000 0.075000 0.040000 6320163
0.050000 0.075000 -0.040000 6320163
-0.050000 0.075000 0.040000 6320163
-0.050000 0.075000 -0.040000 6320163
-0.050000 -0.075000 -0.040000 6320163
-0.050000 -0.075000 0.040000 6320163
0.050000 -0.075000 -0.040000 6320163
0.050000 -0.075000 0.040000 6320163
0.050000 0.075000 0.050000 6320163
0.050000 0.075000 -0.050000 6320163
-0.050000 0.075000 0.050000 6320163
-0.050000 0.075000 -0.050000 6320163
-0.050000 -0.075000 -0.050000 6320163
-0.050000 -0.075000 0.050000 6320163
0.050000 -0.075000 -0.050000 6320163
0.050000 -0.075000 0.050000 6320163
0.050000 0.075000 0.060000 6320163
0.050000 0.075000 -0.060000 6320163
-0.050000 0.075000 0.060000 6320163
-0.050000 0.075000 -0.060000 6320163
-0.050000 -0.075000 -0.060000 6320163
-0.050000 -0.075000 0.060000 6320163
0.050000 -0.075000 -0.060000 6320163
0.050000 -0.075000 0.060000 6320163
0.060000 0.075000 0.000000 6320163
-0.060000 0.075000 0.000000 6320163
-0.060000 -0.075000 0.000000 6320163
0.060000 -0.075000 -0.000000 6320163
0.060000 0.075000 0.010000 6320163
0.060000 0.075000 -0.010000 6320163
-0.060000 0.075000 0.010000 6320163
-0.060000 0.075000 -0.010000 6320163
-0.060000 -0.075000 -0.010000 6320163
-0.060000 -0.075000 0.010000 6320163
0.060000 -0.075000 -0.010000 6320163
0.060000 -0.075000 0.010000 6320163
0.060000 0.075000 0.020000 6320163
0.060000 0.075000 -0.020000 6320163
-0.060000 0.075000 0.020000 6320163
-0.060000 0.075000 -0.020000 6320163
-0.060000 -0.075000 -0.020000 6320163
-0.060000 -0.075000 0.020000 6320163
0.060000 -0.075000 -0.020000 6320163
0.060000 -0.075000 0.020000 6320163
0.060000 0.075000 0.030000 6320163
0.060000 0.075000 -0.030000 6320163
-0.060000 0.075000 0.030000 6320163
-0.060000 0.075000 -0.030000 6320163
-0.060000 -0.075000 -0.030000 6320163
-0.060000 -0.075000 0.030000 6320163
0.060000 -0.075000 -0.030000 6320163
0.060000 -0.075000 0.030000 6320163
0.060000 0.075000 0.040000 6320163
0.060000 0.075000 -0.040000 6320163
-0.060000 0.075000 0.040000 6320163
-0.060000 0.075000 -0.040000 6320163
-0.060000 -0.075000 -0.040000 6320163
-0.060000 -0.075000 0.040000 6320163
0.060000 -0.075000 -0.040000 6320163
0.060000 -0.075000 0.040000 6320163
0.060000 0.075000 0.050000 6320163
0.060000 0.075000 -0.050000 6320163
-0.060000 0.075000 0.050000 6320163
-0.060000 0.075000 -0.050000 6320163
-0.060000 -0.075000 -0.050000 6320163
-0.060000 -0.075000 0.050000 6320163
0.060000 -0.075000 -0.050000 6320163
0.060000 -0.075000 0.050000 6320163
0.060000 0.075000 0.060000 6320163
0.060000 0.075000 -0.060000 6320163
-0.060000 0.075000 0.060000 6320163
-0.060000 0.075000 -0.060000 6320163
-0.060000 -0.075000 -0.060000 6320163
-0.060000 -0.075000 0.060000 6320163
0.060000 -0.075000 -0.060000 6320163
0.060000 -0.075000 0.060000 6320163
0.070000 0.075000 0.000000 6320163
-0.070000 0.075000 0.000000 6320163
-0.070000 -0.075000 0.000000 6320163
0.070000 -0.075000 -0.000000 6320163
0.070000 0.075000 0.010000 6320163
0.070000 0.075000 -0.010000 6320163
-0.070000 0.075000 0.010000 6320163
-0.070000 0.075000 -0.010000 6320163
-0.070000 -0.075000 -0.010000 6320163
-0.070000 -0.075000 0.010000 6320163
0.070000 -0.075000 -0.010000 6320163
0.070000 -0.075000 0.010000 6320163
0.070000 0.075000 0.020000 6320163
0.070000 0.075000 -0.020000 6320163
