VERSION .7
FIELDS x y z rgb
SIZE 4 4 4 4
TYPE F F F I
COUNT 1 1 1 1
WIDTH 1313
HEIGHT 1
VIEWPOINT 0 0 0 1 0 0 0
POINTS 1313
DATA ascii
-0.847200 -0.208300 0.052500 8989997
-0.847200 -0.208300 0.072500 8989997
-0.787200 -0.208300 0.052500 8989997
-0.787200 -0.208300 0.072500 8989997
-0.787200 -0.058300 0.082500 8989997
-0.787200 -0.058300 0.042500 8989997
-0.847200 -0.058300 0.082500 8989997
-0.847200 -0.058300 0.042500 8989997
-0.847200 -0.208300 0.042500 8989997
-0.847200 -0.208300 0.082500 8989997
-0.787200 -0.208300 0.042500 8989997
-0.787200 -0.208300 0.082500 8989997
-0.787200 -0.058300 0.092500 8989997
-0.787200 -0.058300 0.032500 8989997
-0.847200 -0.058300 0.092500 8989997
-0.847200 -0.058300 0.032500 8989997
-0.847200 -0.208300 0.032500 8989997
-0.847200 -0.208300 0.092500 8989997
-0.787200 -0.208300 0.032500 8989997
-0.787200 -0.208300 0.092500 8989997
-0.787200 -0.058300 0.102500 8989997
-0.787200 -0.058300 0.022500 8989997
-0.847200 -0.058300 0.102500 8989997
-0.847200 -0.058300 0.022500 8989997
-0.847200 -0.208300 0.022500 8989997
-0.847200 -0.208300 0.102500 8989997
-0.787200 -0.208300 0.022500 8989997
-0.787200 -0.208300 0.102500 8989997
-0.787200 -0.058300 0.112500 8989997
-0.787200 -0.058300 0.012500 8989997
-0.847200 -0.058300 0.112500 8989997
-0.847200 -0.058300 0.012500 8989997
-0.847200 -0.208300 0.012500 8989997
-0.847200 -0.208300 0.112500 8989997
-0.787200 -0.208300 0.012500 8989997
-0.787200 -0.208300 0.112500 8989997
-0.777200 -0.058300 0.062500 8989997
-0.857200 -0.058300 0.062500 8989997
-0.857200 -0.208300 0.062500 8989997
-0.777200 -0.208300 0.062500 8989997
-0.777200 -0.058300 0.072500 8989997
-0.777200 -0.058300 0.052500 8989997
-0.857200 -0.058300 0.072500 8989997
-0.857200 -0.058300 0.052500 8989997
-0.857200 -0.208300 0.052500 8989997
-0.857200 -0.208300 0.072500 8989997
-0.777200 -0.208300 0.052500 8989997
-0.777200 -0.208300 0.072500 8989997
-0.777200 -0.058300 0.082500 8989997
-0.777200 -0.058300 0.042500 8989997
-0.857200 -0.058300 0.082500 8989997
-0.857200 -0.058300 0.042500 8989997
-0.857200 -0.208300 0.042500 8989997
-0.857200 -0.208300 0.082500 8989997
-0.777200 -0.208300 0.042500 8989997
-0.777200 -0.208300 0.082500 8989997
-0.777200 -0.058300 0.092500 8989997
-0.777200 -0.058300 0.032500 8989997
-0.857200 -0.058300 0.092500 8989997
-0.857200 -0.058300 0.032500 8989997
-0.857200 -0.208300 0.032500 8989997
-0.857200 -0.208300 0.092500 8989997
-0.777200 -0.208300 0.032500 8989997
-0.777200 -0.208300 0.092500 8989997
-0.777200 -0.058300 0.102500 8989997
-0.777200 -0.058300 0.022500 8989997
-0.857200 -0.058300 0.102500 8989997
-0.857200 -0.058300 0.022500 8989997
-0.857200 -0.208300 0.022500 8989997
-0.857200 -0.208300 0.102500 8989997
-0.777200 -0.208300 0.022500 8989997
-0.777200 -0.208300 0.102500 8989997
-0.777200 -0.058300 0.112500 8989997
-0.777200 -0.058300 0.012500 8989997
-0.857200 -0.058300 0.112500 8989997
-0.857200 -0.058300 0.012500 8989997
-0.857200 -0.208300 0.012500 8989997
-0.857200 -0.208300 0.112500 8989997
-0.777200 -0.208300 0.012500 8989997
-0.777200 -0.208300 0.112500 8989997
-0.777200 -0.133300 0.062500 8989997
-0.857200 -0.133300 0.062500 8989997
-0.777200 -0.133300 0.072500 8989997
-0.777200 -0.133300 0.052500 8989997
-0.857200 -0.133300 0.072500 8989997
-0.857200 -0.133300 0.052500 8989997
-0.777200 -0.133300 0.082500 8989997
-0.777200 -0.133300 0.042500 8989997
-0.857200 -0.133300 0.082500 8989997
-0.857200 -0.133300 0.042500 8989997
-0.777200 -0.133300 0.092500 8989997
-0.777200 -0.133300 0.032500 8989997
-0.857200 -0.133300 0.092500 8989997
-0.857200 -0.133300 0.032500 8989997
-0.777200 -0.133300 0.102500 8989997
-0.777200 -0.133300 0.022500 8989997
-0.857200 -0.133300 0.102500 8989997
-0.857200 -0.133300 0.022500 8989997
-0.777200 -0.133300 0.112500 8989997
-0.777200 -0.133300 0.012500 8989997
-0.857200 -0.133300 0.112500 8989997
-0.857200 -0.133300 0.012500 8989997
-0.777200 -0.123300 0.062500 8989997
-0.857200 -0.123300 0.062500 8989997
-0.857200 -0.143300 0.062500 8989997
-0.777200 -0.143300 0.062500 8989997
-0.777200 -0.123300 0.072500 8989997
-0.777200 -0.123300 0.052500 8989997
-0.857200 -0.123300 0.072500 8989997
-0.857200 -0.123300 0.052500 8989997
-0.857200 -0.143300 0.052500 8989997
-0.857200 -0.143300 0.072500 8989997
-0.777200 -0.143300 0.052500 8989997
-0.777200 -0.143300 0.072500 8989997
-0.777200 -0.123300 0.082500 8989997
-0.777200 -0.123300 0.042500 8989997
-0.857200 -0.123300 0.082500 8989997
-0.857200 -0.123300 0.042500 8989997
-0.857200 -0.143300 0.042500 8989997
-0.857200 -0.143300 0.082500 8989997
-0.777200 -0.143300 0.042500 8989997
-0.777200 -0.143300 0.082500 8989997
-0.777200 -0.123300 0.092500 8989997
-0.777200 -0.123300 0.032500 8989997
-0.857200 -0.123300 0.092500 8989997
-0.857200 -0.123300 0.032500 8989997
-0.857200 -0.143300 0.032500 8989997
-0.857200 -0.143300 0.092500 8989997
-0.777200 -0.143300 0.032500 8989997
-0.777200 -0.143300 0.092500 8989997
-0.777200 -0.123300 0.102500 8989997
-0.777200 -0.123300 0.022500 8989997
-0.857200 -0.123300 0.102500 8989997
-0.857200 -0.123300 0.022500 8989997
-0.857200 -0.143300 0.022500 8989997
-0.857200 -0.143300 0.102500 8989997
-0.777200 -0.143300 0.022500 8989997
-0.777200 -0.143300 0.102500 8989997
-0.777200 -0.123300 0.112500 8989997
-0.777200 -0.123300 0.012500 8989997
-0.857200 -0.123300 0.112500 8989997
-0.857200 -0.123300 0.012500 8989997
-0.857200 -0.143300 0.012500 8989997
-0.857200 -0.143300 0.112500 8989997
-0.777200 -0.143300 0.012500 8989997
-0.777200 -0.143300 0.112500 8989997
-0.777200 -0.113300 0.062500 8989997
-0.857200 -0.113300 0.062500 8989997
-0.857200 -0.153300 0.062500 8989997
-0.777200 -0.153300 0.062500 8989997
-0.777200 -0.113300 0.072500 8989997
-0.777200 -0.113300 0.052500 8989997
-0.857200 -0.113300 0.072500 8989997
-0.857200 -0.113300 0.052500 8989997
-0.857200 -0.153300 0.052500 8989997
-0.857200 -0.153300 0.072500 8989997
-0.777200 -0.153300 0.052500 8989997
-0.777200 -0.153300 0.072500 8989997
-0.777200 -0.113300 0.082500 8989997
-0.777200 -0.113300 0.042500 8989997
-0.857200 -0.113300 0.082500 8989997
-0.857200 -0.113300 0.042500 8989997
-0.857200 -0.153300 0.042500 8989997
-0.857200 -0.153300 0.082500 8989997
-0.777200 -0.153300 0.042500 8989997
-0.777200 -0.153300 0.082500 8989997
-0.777200 -0.113300 0.092500 8989997
-0.777200 -0.113300 0.032500 8989997
-0.857200 -0.113300 0.092500 8989997
-0.857200 -0.113300 0.032500 8989997
-0.857200 -0.153300 0.032500 8989997
-0.857200 -0.153300 0.092500 8989997
-0.777200 -0.153300 0.032500 8989997
-0.777200 -0.153300 0.092500 8989997
-0.777200 -0.113300 0.102500 8989997
-0.777200 -0.113300 0.022500 8989997
-0.857200 -0.113300 0.102500 8989997
-0.857200 -0.113300 0.022500 8989997
-0.857200 -0.153300 0.022500 8989997
-0.857200 -0.153300 0.102500 8989997
-0.777200 -0.153300 0.022500 8989997
-0.777200 -0.153300 0.102500 8989997
-0.777200 -0.113300 0.112500 8989997
-0.777200 -0.113300 0.012500 8989997
-0.857200 -0.113300 0.112500 8989997
-0.857200 -0.113300 0.012500 8989997
-0.857200 -0.153300 0.012500 8989997
-0.857200 -0.153300 0.112500 8989997
-0.777200 -0.153300 0.012500 8989997
-0.777200 -0.153300 0.112500 8989997
-0.777200 -0.103300 0.062500 8989997
-0.857200 -0.103300 0.062500 8989997
-0.857200 -0.163300 0.062500 8989997
-0.777200 -0.163300 0.062500 8989997
-0.777200 -0.103300 0.072500 8989997
-0.777200 -0.103300 0.052500 8989997
-0.857200 -0.103300 0.072500 8989997
-0.857200 -0.103300 0.052500 8989997
-0.857200 -0.163300 0.052500 8989997
-0.857200 -0.163300 0.072500 8989997
-0.777200 -0.163300 0.052500 8989997
-0.777200 -0.163300 0.072500 8989997
-0.777200 -0.103300 0.082500 8989997
-0.777200 -0.103300 0.042500 8989997
-0.857200 -0.103300 0.082500 8989997
-0.857200 -0.103300 0.042500 8989997
-0.857200 -0.163300 0.042500 8989997
-0.857200 -0.163300 0.082500 8989997
-0.777200 -0.163300 0.042500 8989997
-0.777200 -0.163300 0.082500 8989997
-0.777200 -0.103300 0.092500 8989997
-0.777200 -0.103300 0.032500 8989997
-0.857200 -0.103300 0.092500 8989997
-0.857200 -0.103300 0.032500 8989997
-0.857200 -0.163300 0.032500 8989997
-0.857200 -0.163300 0.092500 8989997
-0.777200 -0.163300 0.032500 8989997
-0.777200 -0.163300 0.092500 8989997
-0.777200 -0.103300 0.102500 8989997
-0.777200 -0.103300 0.022500 8989997
-0.857200 -0.103300 0.102500 8989997
-0.857200 -0.103300 0.022500 8989997
-0.857200 -0.163300 0.022500 8989997
-0.857200 -0.163300 0.102500 8989997
-0.777200 -0.163300 0.022500 8989997
-0.777200 -0.163300 0.102500 8989997
-0.777200 -0.103300 0.112500 8989997
-0.777200 -0.103300 0.012500 8989997
-0.857200 -0.103300 0.112500 8989997
-0.857200 -0.103300 0.012500 8989997
-0.857200 -0.163300 0.012500 8989997
-0.857200 -0.163300 0.112500 8989997
-0.777200 -0.163300 0.012500 8989997
-0.777200 -0.163300 0.112500 8989997
-0.777200 -0.093300 0.062500 8989997
-0.857200 -0.093300 0.062500 8989997
-0.857200 -0.173300 0.062500 8989997
-0.777200 -0.173300 0.062500 8989997
-0.777200 -0.093300 0.072500 8989997
-0.777200 -0.093300 0.052500 8989997
-0.857200 -0.093300 0.072500 8989997
-0.857200 -0.093300 0.052500 8989997
-0.857200 -0.173300 0.052500 8989997
-0.857200 -0.173300 0.072500 8989997
-0.777200 -0.173300 0.052500 8989997
-0.777200 -0.173300 0.072500 8989997
-0.777200 -0.093300 0.082500 8989997
-0.777200 -0.093300 0.042500 8989997
-0.857200 -0.093300 0.082500 8989997
-0.857200 -0.093300 0.042500 8989997
-0.857200 -0.173300 0.042500 8989997
-0.857200 -0.173300 0.082500 8989997
-0.777200 -0.173300 0.042500 8989997
-0.777200 -0.173300 0.082500 8989997
-0.777200 -0.093300 0.092500 8989997
-0.777200 -0.093300 0.032500 8989997
-0.857200 -0.093300 0.092500 8989997
-0.857200 -0.093300 0.032500 8989997
-0.857200 -0.173300 0.032500 8989997
-0.857200 -0.173300 0.092500 8989997
-0.777200 -0.173300 0.032500 8989997
-0.777200 -0.173300 0.092500 8989997
-0.777200 -0.093300 0.102500 8989997
-0.777200 -0.093300 0.022500 8989997
-0.857200 -0.093300 0.102500 8989997
-0.857200 -0.093300 0.022500 8989997
-0.857200 -0.173300 0.022500 8989997
-0.857200 -0.173300 0.102500 8989997
-0.777200 -0.173300 0.022500 8989997
-0.777200 -0.173300 0.102500 8989997
-0.777200 -0.093300 0.112500 8989997
-0.777200 -0.093300 0.012500 8989997
-0.857200 -0.093300 0.112500 8989997
-0.857200 -0.093300 0.012500 8989997
-0.857200 -0.173300 0.012500 8989997
-0.857200 -0.173300 0.112500 8989997
-0.777200 -0.173300 0.012500 8989997
-0.777200 -0.173300 0.112500 8989997
-0.777200 -0.083300 0.062500 8989997
-0.857200 -0.083300 0.062500 8989997
-0.857200 -0.183300 0.062500 8989997
-0.777200 -0.183300 0.062500 8989997
-0.777200 -0.083300 0.072500 8989997
-0.777200 -0.083300 0.052500 8989997
-0.857200 -0.083300 0.072500 8989997
-0.857200 -0.083300 0.052500 8989997
-0.857200 -0.183300 0.052500 8989997
-0.857200 -0.183300 0.072500 8989997
-0.777200 -0.183300 0.052500 8989997
-0.777200 -0.183300 0.072500 8989997
-0.777200 -0.083300 0.082500 8989997
-0.777200 -0.083300 0.042500 8989997
-0.857200 -0.083300 0.082500 8989997
-0.857200 -0.083300 0.042500 8989997
-0.857200 -0.183300 0.042500 8989997
-0.857200 -0.183300 0.082500 8989997
-0.777200 -0.183300 0.042500 8989997
-0.777200 -0.183300 0.082500 8989997
-0.777200 -0.083300 0.092500 8989997
-0.777200 -0.083300 0.032500 8989997
-0.857200 -0.083300 0.092500 8989997
-0.857200 -0.083300 0.032500 8989997
-0.857200 -0.183300 0.032500 8989997
-0.857200 -0.183300 0.092500 8989997
-0.777200 -0.183300 0.032500 8989997
-0.777200 -0.183300 0.092500 8989997
-0.777200 -0.083300 0.102500 8989997
-0.777200 -0.083300 0.022500 8989997
-0.857200 -0.083300 0.102500 8989997
-0.857200 -0.083300 0.022500 8989997
-0.857200 -0.183300 0.022500 8989997
-0.857200 -0.183300 0.102500 8989997
-0.777200 -0.183300 0.022500 8989997
-0.777200 -0.183300 0.102500 8989997
-0.777200 -0.083300 0.112500 8989997
-0.777200 -0.083300 0.012500 8989997
-0.857200 -0.083300 0.112500 8989997
-0.857200 -0.083300 0.012500 8989997
-0.857200 -0.183300 0.012500 8989997
-0.857200 -0.183300 0.112500 8989997
-0.777200 -0.183300 0.012500 8989997
-0.777200 -0.183300 0.112500 8989997
-0.777200 -0.073300 0.062500 8989997
-0.857200 -0.073300 0.062500 8989997
-0.857200 -0.193300 0.062500 8989997
-0.777200 -0.193300 0.062500 8989997
-0.777200 -0.073300 0.072500 8989997
-0.777200 -0.073300 0.052500 8989997
-0.857200 -0.073300 0.072500 8989997
-0.857200 -0.073300 0.052500 8989997
-0.857200 -0.193300 0.052500 8989997
-0.857200 -0.193300 0.072500 8989997
-0.777200 -0.193300 0.052500 8989997
-0.777200 -0.193300 0.072500 8989997
-0.777200 -0.073300 0.082500 8989997
-0.777200 -0.073300 0.042500 8989997
-0.857200 -0.073300 0.082500 8989997
-0.857200 -0.073300 0.042500 8989997
-0.857200 -0.193300 0.042500 8989997
-0.857200 -0.193300 0.082500 8989997
-0.777200 -0.193300 0.042500 8989997
-0.777200 -0.193300 0.082500 8989997
-0.777200 -0.073300 0.092500 8989997
-0.777200 -0.073300 0.032500 8989997
-0.857200 -0.073300 0.092500 8989997
-0.857200 -0.073300 0.032500 8989997
-0.857200 -0.193300 0.032500 8989997
-0.857200 -0.193300 0.092500 8989997
-0.777200 -0.193300 0.032500 8989997
-0.777200 -0.193300 0.092500 8989997
-0.777200 -0.073300 0.102500 8989997
-0.777200 -0.073300 0.022500 8989997
-0.857200 -0.073300 0.102500 8989997
-0.857200 -0.073300 0.022500 8989997
-0.857200 -0.193300 0.022500 8989997
-0.857200 -0.193300 0.102500 8989997
-0.777200 -0.193300 0.022500 8989997
-0.777200 -0.193300 0.102500 8989997
-0.777200 -0.073300 0.112500 8989997
-0.777200 -0.073300 0.012500 8989997
-0.857200 -0.073300 0.112500 8989997
-0.857200 -0.073300 0.012500 8989997
-0.857200 -0.193300 0.012500 8989997
-0.857200 -0.193300 0.112500 8989997
-0.777200 -0.193300 0.012500 8989997
-0.777200 -0.193300 0.112500 8989997
-0.777200 -0.063300 0.062500 8989997
-0.857200 -0.063300 0.062500 8989997
-0.857200 -0.203300 0.062500 8989997
-0.777200 -0.203300 0.062500 8989997
-0.777200 -0.063300 0.072500 8989997
-0.777200 -0.063300 0.052500 8989997
-0.857200 -0.063300 0.072500 8989997
-0.857200 -0.063300 0.052500 8989997
-0.857200 -0.203300 0.052500 8989997
-0.857200 -0.203300 0.072500 8989997
-0.777200 -0.203300 0.052500 8989997
-0.777200 -0.203300 0.072500 8989997
-0.777200 -0.063300 0.082500 8989997
-0.777200 -0.063300 0.042500 8989997
-0.857200 -0.063300 0.082500 8989997
-0.857200 -0.063300 0.042500 8989997
-0.857200 -0.203300 0.042500 8989997
-0.857200 -0.203300 0.082500 8989997
-0.777200 -0.203300 0.042500 8989997
-0.777200 -0.203300 0.082500 8989997
-0.777200 -0.063300 0.092500 8989997
-0.777200 -0.063300 0.032500 8989997
-0.857200 -0.063300 0.092500 8989997
-0.857200 -0.063300 0.032500 8989997
-0.857200 -0.203300 0.032500 8989997
-0.857200 -0.203300 0.092500 8989997
-0.777200 -0.203300 0.032500 8989997
-0.777200 -0.203300 0.092500 8989997
-0.777200 -0.063300 0.102500 8989997
-0.777200 -0.063300 0.022500 8989997
-0.857200 -0.063300 0.102500 8989997
-0.857200 -0.063300 0.022500 8989997
-0.857200 -0.203300 0.022500 8989997
-0.857200 -0.203300 0.102500 8989997
-0.777200 -0.203300 0.022500 8989997
-0.777200 -0.203300 0.102500 8989997
-0.777200 -0.063300 0.112500 8989997
-0.777200 -0.063300 0.012500 8989997
-0.857200 -0.063300 0.112500 8989997
-0.857200 -0.063300 0.012500 8989997
-0.857200 -0.203300 0.012500 8989997
-0.857200 -0.203300 0.112500 8989997
-0.777200 -0.203300 0.012500 8989997
-0.777200 -0.203300 0.112500 8989997
-0.817200 -0.133300 0.112500 8989997
-0.817200 -0.133300 0.012500 8989997
-0.817200 -0.123300 0.112500 8989997
-0.817200 -0.123300 0.012500 8989997
-0.817200 -0.143300 0.012500 8989997
-0.817200 -0.143300 0.112500 8989997
-0.817200 -0.113300 0.112500 8989997
-0.817200 -0.113300 0.012500 8989997
-0.817200 -0.153300 0.012500 8989997
-0.817200 -0.153300 0.112500 8989997
-0.817200 -0.103300 0.112500 8989997
-0.817200 -0.103300 0.012500 8989997
-0.817200 -0.163300 0.012500 8989997
-0.817200 -0.163300 0.112500 8989997
-0.817200 -0.093300 0.112500 8989997
-0.817200 -0.093300 0.012500 8989997
-0.817200 -0.173300 0.012500 8989997
-0.817200 -0.173300 0.112500 8989997
-0.817200 -0.083300 0.112500 8989997
-0.817200 -0.083300 0.012500 8989997
-0.817200 -0.183300 0.012500 8989997
-0.817200 -0.183300 0.112500 8989997
-0.817200 -0.073300 0.112500 8989997
-0.817200 -0.073300 0.012500 8989997
-0.817200 -0.193300 0.012500 8989997
-0.817200 -0.193300 0.112500 8989997
-0.817200 -0.063300 0.112500 8989997
-0.817200 -0.063300 0.012500 8989997
-0.817200 -0.203300 0.012500 8989997
-0.817200 -0.203300 0.112500 8989997
-0.807200 -0.133300 0.112500 8989997
-0.827200 -0.133300 0.112500 8989997
-0.807200 -0.133300 0.012500 8989997
-0.807200 -0.123300 0.112500 8989997
-0.807200 -0.123300 0.012500 8989997
-0.827200 -0.123300 0.112500 8989997
-0.827200 -0.123300 0.012500 8989997
-0.827200 -0.143300 0.012500 8989997
-0.827200 -0.143300 0.112500 8989997
-0.807200 -0.143300 0.012500 8989997
-0.807200 -0.143300 0.112500 8989997
-0.807200 -0.113300 0.112500 8989997
-0.807200 -0.113300 0.012500 8989997
-0.827200 -0.113300 0.112500 8989997
-0.827200 -0.113300 0.012500 8989997
-0.827200 -0.153300 0.012500 8989997
-0.827200 -0.153300 0.112500 8989997
-0.807200 -0.153300 0.012500 8989997
-0.807200 -0.153300 0.112500 8989997
-0.807200 -0.103300 0.112500 8989997
-0.807200 -0.103300 0.012500 8989997
-0.827200 -0.103300 0.112500 8989997
-0.827200 -0.103300 0.012500 8989997
-0.827200 -0.163300 0.012500 8989997
-0.827200 -0.163300 0.112500 8989997
-0.807200 -0.163300 0.012500 8989997
-0.807200 -0.163300 0.112500 8989997
-0.807200 -0.093300 0.112500 8989997
-0.807200 -0.093300 0.012500 8989997
-0.827200 -0.093300 0.112500 8989997
-0.827200 -0.093300 0.012500 8989997
-0.827200 -0.173300 0.012500 8989997
-0.827200 -0.173300 0.112500 8989997
-0.807200 -0.173300 0.012500 8989997
-0.807200 -0.173300 0.112500 8989997
-0.807200 -0.083300 0.112500 8989997
-0.807200 -0.083300 0.012500 8989997
-0.827200 -0.083300 0.112500 8989997
-0.827200 -0.083300 0.012500 8989997
-0.827200 -0.183300 0.012500 8989997
-0.827200 -0.183300 0.112500 8989997
-0.807200 -0.183300 0.012500 8989997
-0.807200 -0.183300 0.112500 8989997
-0.807200 -0.073300 0.112500 8989997
-0.807200 -0.073300 0.012500 8989997
-0.827200 -0.073300 0.112500 8989997
-0.827200 -0.073300 0.012500 8989997
-0.827200 -0.193300 0.012500 8989997
-0.827200 -0.193300 0.112500 8989997
-0.807200 -0.193300 0.012500 8989997
-0.807200 -0.193300 0.112500 8989997
-0.807200 -0.063300 0.112500 8989997
-0.807200 -0.063300 0.012500 8989997
-0.827200 -0.063300 0.112500 8989997
-0.827200 -0.063300 0.012500 8989997
-0.827200 -0.203300 0.012500 8989997
-0.827200 -0.203300 0.112500 8989997
-0.807200 -0.203300 0.012500 8989997
-0.807200 -0.203300 0.112500 8989997
-0.797200 -0.133300 0.112500 8989997
-0.837200 -0.133300 0.112500 8989997
-0.797200 -0.133300 0.012500 8989997
-0.797200 -0.123300 0.112500 8989997
-0.797200 -0.123300 0.012500 8989997
-0.837200 -0.123300 0.112500 8989997
-0.837200 -0.123300 0.012500 8989997
-0.837200 -0.143300 0.012500 8989997
-0.837200 -0.143300 0.112500 8989997
-0.797200 -0.143300 0.012500 8989997
-0.797200 -0.143300 0.112500 8989997
-0.797200 -0.113300 0.112500 8989997
-0.797200 -0.113300 0.012500 8989997
-0.837200 -0.113300 0.112500 8989997
-0.837200 -0.113300 0.012500 8989997
-0.837200 -0.153300 0.012500 8989997
-0.837200 -0.153300 0.112500 8989997
-0.797200 -0.153300 0.012500 8989997
-0.797200 -0.153300 0.112500 8989997
-0.797200 -0.103300 0.112500 8989997
-0.797200 -0.103300 0.012500 8989997
-0.837200 -0.103300 0.112500 8989997
-0.837200 -0.103300 0.012500 8989997
-0.837200 -0.163300 0.012500 8989997
-0.837200 -0.163300 0.112500 8989997
-0.797200 -0.163300 0.012500 8989997
-0.797200 -0.163300 0.112500 8989997
-0.797200 -0.093300 0.112500 8989997
-0.797200 -0.093300 0.012500 8989997
-0.837200 -0.093300 0.112500 8989997
-0.837200 -0.093300 0.012500 8989997
-0.837200 -0.173300 0.012500 8989997
-0.837200 -0.173300 0.112500 8989997
-0.797200 -0.173300 0.012500 8989997
-0.797200 -0.173300 0.112500 8989997
-0.797200 -0.083300 0.112500 8989997
-0.797200 -0.083300 0.012500 8989997
-0.837200 -0.083300 0.112500 8989997
-0.837200 -0.083300 0.012500 8989997
-0.837200 -0.183300 0.012500 8989997
-0.837200 -0.183300 0.112500 8989997
-0.797200 -0.183300 0.012500 8989997
-0.797200 -0.183300 0.112500 8989997
-0.797200 -0.073300 0.112500 8989997
-0.797200 -0.073300 0.012500 8989997
-0.837200 -0.073300 0.112500 8989997
-0.837200 -0.073300 0.012500 8989997
-0.837200 -0.193300 0.012500 8989997
-0.837200 -0.193300 0.112500 8989997
-0.797200 -0.193300 0.012500 8989997
-0.797200 -0.193300 0.112500 8989997
-0.797200 -0.063300 0.112500 8989997
-0.797200 -0.063300 0.012500 8989997
-0.837200 -0.063300 0.112500 8989997
-0.837200 -0.063300 0.012500 8989997
-0.837200 -0.203300 0.012500 8989997
-0.837200 -0.203300 0.112500 8989997
-0.797200 -0.203300 0.012500 8989997
-0.797200 -0.203300 0.112500 8989997
-0.787200 -0.133300 0.112500 8989997
-0.847200 -0.133300 0.112500 8989997
-0.787200 -0.133300 0.012500 8989997
-0.787200 -0.123300 0.112500 8989997
-0.787200 -0.123300 0.012500 8989997
-0.847200 -0.123300 0.112500 8989997
-0.847200 -0.123300 0.012500 8989997
-0.847200 -0.143300 0.012500 8989997
-0.847200 -0.143300 0.112500 8989997
-0.787200 -0.143300 0.012500 8989997
-0.787200 -0.143300 0.112500 8989997
-0.787200 -0.113300 0.112500 8989997
-0.787200 -0.113300 0.012500 8989997
-0.847200 -0.113300 0.112500 8989997
-0.847200 -0.113300 0.012500 8989997
-0.847200 -0.153300 0.012500 8989997
-0.847200 -0.153300 0.112500 8989997
-0.787200 -0.153300 0.012500 8989997
-0.787200 -0.153300 0.112500 8989997
-0.787200 -0.103300 0.112500 8989997
-0.787200 -0.103300 0.012500 8989997
-0.847200 -0.103300 0.112500 8989997
-0.847200 -0.103300 0.012500 8989997
-0.847200 -0.163300 0.012500 8989997
-0.847200 -0.163300 0.112500 8989997
-0.787200 -0.163300 0.012500 8989997
-0.787200 -0.163300 0.112500 8989997
-0.787200 -0.093300 0.112500 8989997
-0.787200 -0.093300 0.012500 8989997
-0.847200 -0.093300 0.112500 8989997
-0.847200 -0.093300 0.012500 8989997
-0.847200 -0.173300 0.012500 8989997
-0.847200 -0.173300 0.112500 8989997
-0.787200 -0.173300 0.012500 8989997
-0.787200 -0.173300 0.112500 8989997
-0.787200 -0.083300 0.112500 8989997
-0.787200 -0.083300 0.012500 8989997
-0.847200 -0.083300 0.112500 8989997
-0.847200 -0.083300 0.012500 8989997
-0.847200 -0.183300 0.012500 8989997
-0.847200 -0.183300 0.112500 8989997
-0.787200 -0.183300 0.012500 8989997
-0.787200 -0.183300 0.112500 8989997
-0.787200 -0.073300 0.112500 8989997
-0.787200 -0.073300 0.012500 8989997
-0.847200 -0.073300 0.112500 8989997
-0.847200 -0.073300 0.012500 8989997
-0.847200 -0.193300 0.012500 8989997
-0.847200 -0.193300 0.112500 8989997
-0.787200 -0.193300 0.012500 8989997
-0.787200 -0.193300 0.112500 8989997
-0.787200 -0.063300 0.112500 8989997
-0.787200 -0.063300 0.012500 8989997
-0.847200 -0.063300 0.112500 8989997
-0.847200 -0.063300 0.012500 8989997
-0.847200 -0.203300 0.012500 8989997
-0.847200 -0.203300 0.112500 8989997
-0.787200 -0.203300 0.012500 8989997
-0.787200 -0.203300 0.112500 8989997
0.000000 0.060000 0.130000 6320163
0.000000 -0.060000 0.130000 6320163
0.000000 0.060000 0.140000 6320163
0.000000 0.060000 0.120000 6320163
0.000000 -0.060000 0.120000 6320163
0.000000 -0.060000 0.140000 6320163
0.000000 0.060000 0.150000 6320163
0.000000 0.060000 0.110000 6320163
0.000000 -0.060000 0.110000 6320163
0.000000 -0.060000 0.150000 6320163
0.000000 0.060000 0.160000 6320163
0.000000 0.060000 0.100000 6320163
0.000000 -0.060000 0.100000 6320163
0.000000 -0.060000 0.160000 6320163
0.000000 0.060000 0.170000 6320163
0.000000 0.060000 0.090000 6320163
0.000000 -0.060000 0.090000 6320163
0.000000 -0.060000 0.170000 6320163
0.000000 0.060000 0.180000 6320163
0.000000 0.060000 0.080000 6320163
0.000000 -0.060000 0.080000 6320163
0.000000 -0.060000 0.180000 6320163
0.000000 0.060000 0.190000 6320163
0.000000 0.060000 0.070000 6320163
0.000000 -0.060000 0.070000 6320163
0.000000 -0.060000 0.190000 6320163
0.000000 0.060000 0.200000 6320163
0.000000 0.060000 0.060000 6320163
0.000000 -0.060000 0.060000 6320163
0.000000 -0.060000 0.200000 6320163
0.000000 0.060000 0.210000 6320163
0.000000 0.060000 0.050000 6320163
0.000000 -0.060000 0.050000 6320163
0.000000 -0.060000 0.210000 6320163
0.000000 0.060000 0.220000 6320163
0.000000 0.060000 0.040000 6320163
0.000000 -0.060000 0.040000 6320163
0.000000 -0.060000 0.220000 6320163
0.000000 0.060000 0.230000 6320163
0.000000 0.060000 0.030000 6320163
0.000000 -0.060000 0.030000 6320163
0.000000 -0.060000 0.230000 6320163
0.000000 0.060000 0.240000 6320163
0.000000 0.060000 0.020000 6320163
0.000000 -0.060000 0.020000 6320163
0.000000 -0.060000 0.240000 6320163
0.000000 0.060000 0.250000 6320163
0.000000 0.060000 0.010000 6320163
0.000000 -0.060000 0.010000 6320163
0.000000 -0.060000 0.250000 6320163
0.000000 0.060000 0.260000 6320163
0.000000 0.060000 0.000000 6320163
0.000000 -0.060000 0.000000 6320163
0.000000 -0.060000 0.260000 6320163
0.010000 0.060000 0.130000 6320163
-0.010000 0.060000 0.130000 6320163
-0.010000 -0.060000 0.130000 6320163
0.010000 -0.060000 0.130000 6320163
0.010000 0.060000 0.140000 6320163
0.010000 0.060000 0.120000 6320163
-0.010000 0.060000 0.140000 6320163
-0.010000 0.060000 0.120000 6320163
-0.010000 -0.060000 0.120000 6320163
-0.010000 -0.060000 0.140000 6320163
0.010000 -0.060000 0.120000 6320163
0.010000 -0.060000 0.140000 6320163
0.010000 0.060000 0.150000 6320163
0.010000 0.060000 0.110000 6320163
-0.010000 0.060000 0.150000 6320163
-0.010000 0.060000 0.110000 6320163
-0.010000 -0.060000 0.110000 6320163
-0.010000 -0.060000 0.150000 6320163
0.010000 -0.060000 0.110000 6320163
0.010000 -0.060000 0.150000 6320163
0.010000 0.060000 0.160000 6320163
0.010000 0.060000 0.100000 6320163
-0.010000 0.060000 0.160000 6320163
-0.010000 0.060000 0.100000 6320163
-0.010000 -0.060000 0.100000 6320163
-0.010000 -0.060000 0.160000 6320163
0.010000 -0.060000 0.100000 6320163
0.010000 -0.060000 0.160000 6320163
0.010000 0.060000 0.170000 6320163
0.010000 0.060000 0.090000 6320163
-0.010000 0.060000 0.170000 6320163
-0.010000 0.060000 0.090000 6320163
-0.010000 -0.060000 0.090000 6320163
-0.010000 -0.060000 0.170000 6320163
0.010000 -0.060000 0.090000 6320163
0.010000 -0.060000 0.170000 6320163
0.010000 0.060000 0.180000 6320163
0.010000 0.060000 0.080000 6320163
-0.010000 0.060000 0.180000 6320163
-0.010000 0.060000 0.080000 6320163
-0.010000 -0.060000 0.080000 6320163
-0.010000 -0.060000 0.180000 6320163
0.010000 -0.060000 0.080000 6320163
0.010000 -0.060000 0.180000 6320163
0.010000 0.060000 0.190000 6320163
0.010000 0.060000 0.070000 6320163
-0.010000 0.060000 0.190000 6320163
-0.010000 0.060000 0.070000 6320163
-0.010000 -0.060000 0.070000 6320163
-0.010000 -0.060000 0.190000 6320163
0.010000 -0.060000 0.070000 6320163
0.010000 -0.060000 0.190000 6320163
0.010000 0.060000 0.200000 6320163
0.010000 0.060000 0.060000 6320163
-0.010000 0.060000 0.200000 6320163
-0.010000 0.060000 0.060000 6320163
-0.010000 -0.060000 0.060000 6320163
-0.010000 -0.060000 0.200000 6320163
0.010000 -0.060000 0.060000 6320163
0.010000 -0.060000 0.200000 6320163
0.010000 0.060000 0.210000 6320163
0.010000 0.060000 0.050000 6320163
-0.010000 0.060000 0.210000 6320163
-0.010000 0.060000 0.050000 6320163
-0.010000 -0.060000 0.050000 6320163
-0.010000 -0.060000 0.210000 6320163
0.010000 -0.060000 0.050000 6320163
0.010000 -0.060000 0.210000 6320163
0.010000 0.060000 0.220000 6320163
0.010000 0.060000 0.040000 6320163
-0.010000 0.060000 0.220000 6320163
-0.010000 0.060000 0.040000 6320163
-0.010000 -0.060000 0.040000 6320163
-0.010000 -0.060000 0.220000 6320163
0.010000 -0.060000 0.040000 6320163
0.010000 -0.060000 0.220000 6320163
0.010000 0.060000 0.230000 6320163
0.010000 0.060000 0.030000 6320163
-0.010000 0.060000 0.230000 6320163
-0.010000 0.060000 0.030000 6320163
-0.010000 -0.060000 0.030000 6320163
-0.010000 -0.060000 0.230000 6320163
0.010000 -0.060000 0.030000 6320163
0.010000 -0.060000 0.230000 6320163
0.010000 0.060000 0.240000 6320163
0.010000 0.060000 0.020000 6320163
-0.010000 0.060000 0.240000 6320163
-0.010000 0.060000 0.020000 6320163
-0.010000 -0.060000 0.020000 6320163
-0.010000 -0.060000 0.240000 6320163
0.010000 -0.060000 0.020000 6320163
0.010000 -0.060000 0.240000 6320163
0.010000 0.060000 0.250000 6320163
0.010000 0.060000 0.010000 6320163
-0.010000 0.060000 0.250000 6320163
-0.010000 0.060000 0.010000 6320163
-0.010000 -0.060000 0.010000 6320163
-0.010000 -0.060000 0.250000 6320163
0.010000 -0.060000 0.010000 6320163
0.010000 -0.060000 0.250000 6320163
0.010000 0.060000 0.260000 6320163
0.010000 0.060000 0.000000 6320163
-0.010000 0.060000 0.260000 6320163
-0.010000 0.060000 0.000000 6320163
-0.010000 -0.060000 0.000000 6320163
-0.010000 -0.060000 0.260000 6320163
0.010000 -0.060000 0.000000 6320163
0.010000 -0.060000 0.260000 6320163
0.020000 0.060000 0.130000 6320163
-0.020000 0.060000 0.130000 6320163
-0.020000 -0.060000 0.130000 6320163
0.020000 -0.060000 0.130000 6320163
0.020000 0.060000 0.140000 6320163
0.020000 0.060000 0.120000 6320163
-0.020000 0.060000 0.140000 6320163
-0.020000 0.060000 0.120000 6320163
-0.020000 -0.060000 0.120000 6320163
-0.020000 -0.060000 0.140000 6320163
0.020000 -0.060000 0.120000 6320163
0.020000 -0.060000 0.140000 6320163
0.020000 0.060000 0.150000 6320163
0.020000 0.060000 0.110000 6320163
-0.020000 0.060000 0.150000 6320163
-0.020000 0.060000 0.110000 6320163
-0.020000 -0.060000 0.110000 6320163
-0.020000 -0.060000 0.150000 6320163
0.020000 -0.060000 0.110000 6320163
0.020000 -0.060000 0.150000 6320163
0.020000 0.060000 0.160000 6320163
0.020000 0.060000 0.100000 6320163
-0.020000 0.060000 0.160000 6320163
-0.020000 0.060000 0.100000 6320163
-0.020000 -0.060000 0.100000 6320163
-0.020000 -0.060000 0.160000 6320163
0.020000 -0.060000 0.100000 6320163
0.020000 -0.060000 0.160000 6320163
0.020000 0.060000 0.170000 6320163
0.020000 0.060000 0.090000 6320163
-0.020000 0.060000 0.170000 6320163
-0.020000 0.060000 0.090000 6320163
-0.020000 -0.060000 0.090000 6320163
-0.020000 -0.060000 0.170000 6320163
0.020000 -0.060000 0.090000 6320163
0.020000 -0.060000 0.170000 6320163
0.020000 0.060000 0.180000 6320163
0.020000 0.060000 0.080000 6320163
-0.020000 0.060000 0.180000 6320163
-0.020000 0.060000 0.080000 6320163
-0.020000 -0.060000 0.080000 6320163
-0.020000 -0.060000 0.180000 6320163
0.020000 -0.060000 0.080000 6320163
0.020000 -0.060000 0.180000 6320163
0.020000 0.060000 0.190000 6320163
0.020000 0.060000 0.070000 6320163
-0.020000 0.060000 0.190000 6320163
-0.020000 0.060000 0.070000 6320163
-0.020000 -0.060000 0.070000 6320163
-0.020000 -0.060000 0.190000 6320163
0.020000 -0.060000 0.070000 6320163
0.020000 -0.060000 0.190000 6320163
0.020000 0.060000 0.200000 6320163
0.020000 0.060000 0.060000 6320163
-0.020000 0.060000 0.200000 6320163
-0.020000 0.060000 0.060000 6320163
-0.020000 -0.060000 0.060000 6320163
-0.020000 -0.060000 0.200000 6320163
0.020000 -0.060000 0.060000 6320163
0.020000 -0.060000 0.200000 6320163
0.020000 0.060000 0.210000 6320163
0.020000 0.060000 0.050000 6320163
-0.020000 0.060000 0.210000 6320163
-0.020000 0.060000 0.050000 6320163
-0.020000 -0.060000 0.050000 6320163
-0.020000 -0.060000 0.210000 6320163
0.020000 -0.060000 0.050000 6320163
0.020000 -0.060000 0.210000 6320163
0.020000 0.060000 0.220000 6320163
0.020000 0.060000 0.040000 6320163
-0.020000 0.060000 0.220000 6320163
-0.020000 0.060000 0.040000 6320163
-0.020000 -0.060000 0.040000 6320163
-0.020000 -0.060000 0.220000 6320163
0.020000 -0.060000 0.040000 6320163
0.020000 -0.060000 0.220000 6320163
0.020000 0.060000 0.230000 6320163
0.020000 0.060000 0.030000 6320163
-0.020000 0.060000 0.230000 6320163
-0.020000 0.060000 0.030000 6320163
-0.020000 -0.060000 0.030000 6320163
-0.020000 -0.060000 0.230000 6320163
0.020000 -0.060000 0.030000 6320163
0.020000 -0.060000 0.230000 6320163
0.020000 0.060000 0.240000 6320163
0.020000 0.060000 0.020000 6320163
-0.020000 0.060000 0.240000 6320163
-0.020000 0.060000 0.020000 6320163
-0.020000 -0.060000 0.020000 6320163
-0.020000 -0.060000 0.240000 6320163
0.020000 -0.060000 0.020000 6320163
0.020000 -0.060000 0.240000 6320163
0.020000 0.060000 0.250000 6320163
0.020000 0.060000 0.010000 6320163
-0.020000 0.060000 0.250000 6320163
-0.020000 0.060000 0.010000 6320163
-0.020000 -0.060000 0.010000 6320163
-0.020000 -0.060000 0.250000 6320163
0.020000 -0.060000 0.010000 6320163
0.020000 -0.060000 0.250000 6320163
0.020000 0.060000 0.260000 6320163
0.020000 0.060000 0.000000 6320163
-0.020000 0.060000 0.260000 6320163
-0.020000 0.060000 0.000000 6320163
-0.020000 -0.060000 0.000000 6320163
-0.020000 -0.060000 0.260000 6320163
0.020000 -0.060000 0.000000 6320163
0.020000 -0.060000 0.260000 6320163
0.030000 0.060000 0.130000 6320163
-0.030000 0.060000 0.130000 6320163
-0.030000 -0.060000 0.130000 6320163
0.030000 -0.060000 0.130000 6320163
0.030000 0.060000 0.140000 6320163
0.030000 0.060000 0.120000 6320163
-0.030000 0.060000 0.140000 6320163
-0.030000 0.060000 0.120000 6320163
-0.030000 -0.060000 0.120000 6320163
-0.030000 -0.060000 0.140000 6320163
0.030000 -0.060000 0.120000 6320163
0.030000 -0.060000 0.140000 6320163
0.030000 0.060000 0.150000 6320163
0.030000 0.060000 0.110000 6320163
-0.030000 0.060000 0.150000 6320163
-0.030000 0.060000 0.110000 6320163
-0.030000 -0.060000 0.110000 6320163
-0.030000 -0.060000 0.150000 6320163
0.030000 -0.060000 0.110000 6320163
0.030000 -0.060000 0.150000 6320163
0.030000 0.060000 0.160000 6320163
0.030000 0.060000 0.100000 6320163
-0.030000 0.060000 0.160000 6320163
-0.030000 0.060000 0.100000 6320163
-0.030000 -0.060000 0.100000 6320163
-0.030000 -0.060000 0.160000 6320163
0.030000 -0.060000 0.100000 6320163
0.030000 -0.060000 0.160000 6320163
0.030000 0.060000 0.170000 6320163
0.030000 0.060000 0.090000 6320163
-0.030000 0.060000 0.170000 6320163
-0.030000 0.060000 0.090000 6320163
-0.030000 -0.060000 0.090000 6320163
-0.030000 -0.060000 0.170000 6320163
0.030000 -0.060000 0.090000 6320163
0.030000 -0.060000 0.170000 6320163
0.030000 0.060000 0.180000 6320163
0.030000 0.060000 0.080000 6320163
-0.030000 0.060000 0.180000 6320163
-0.030000 0.060000 0.080000 6320163
-0.030000 -0.060000 0.080000 6320163
-0.030000 -0.060000 0.180000 6320163
0.030000 -0.060000 0.080000 6320163
0.030000 -0.060000 0.180000 6320163
0.030000 0.060000 0.190000 6320163
0.030000 0.060000 0.070000 6320163
-0.030000 0.060000 0.190000 6320163
-0.030000 0.060000 0.070000 6320163
-0.030000 -0.060000 0.070000 6320163
-0.030000 -0.060000 0.190000 6320163
0.030000 -0.060000 0.070000 6320163
0.030000 -0.060000 0.190000 6320163
0.030000 0.060000 0.200000 6320163
0.030000 0.060000 0.060000 6320163
-0.030000 0.060000 0.200000 6320163
-0.030000 0.060000 0.060000 6320163
-0.030000 -0.060000 0.060000 6320163
-0.030000 -0.060000 0.200000 6320163
0.030000 -0.060000 0.060000 6320163
0.030000 -0.060000 0.200000 6320163
0.030000 0.060000 0.210000 6320163
0.030000 0.060000 0.050000 6320163
-0.030000 0.060000 0.210000 6320163
-0.030000 0.060000 0.050000 6320163
-0.030000 -0.060000 0.050000 6320163
-0.030000 -0.060000 0.210000 6320163
0.030000 -0.060000 0.050000 6320163
0.030000 -0.060000 0.210000 6320163
0.030000 0.060000 0.220000 6320163
0.030000 0.060000 0.040000 6320163
-0.030000 0.060000 0.220000 6320163
-0.030000 0.060000 0.040000 6320163
-0.030000 -0.060000 0.040000 6320163
-0.030000 -0.060000 0.220000 6320163
0.030000 -0.060000 0.040000 6320163
0.030000 -0.060000 0.220000 6320163
0.030000 0.060000 0.230000 6320163
0.030000 0.060000 0.030000 6320163
-0.030000 0.060000 0.230000 6320163
-0.030000 0.060000 0.030000 6320163
-0.030000 -0.060000 0.030000 6320163
-0.030000 -0.060000 0.230000 6320163
0.030000 -0.060000 0.030000 6320163
0.030000 -0.060000 0.230000 6320163
0.030000 0.060000 0.240000 6320163
0.030000 0.060000 0.020000 6320163
-0.030000 0.060000 0.240000 6320163
-0.030000 0.060000 0.020000 6320163
-0.030000 -0.060000 0.020000 6320163
-0.030000 -0.060000 0.240000 6320163
0.030000 -0.060000 0.020000 6320163
0.030000 -0.060000 0.240000 6320163
0.030000 0.060000 0.250000 6320163
0.030000 0.060000 0.010000 6320163
-0.030000 0.060000 0.250000 6320163
-0.030000 0.060000 0.010000 6320163
-0.030000 -0.060000 0.010000 6320163
-0.030000 -0.060000 0.250000 6320163
0.030000 -0.060000 0.010000 6320163
0.030000 -0.060000 0.250000 6320163
0.030000 0.060000 0.260000 6320163
0.030000 0.060000 0.000000 6320163
-0.030000 0.060000 0.260000 6320163
-0.030000 0.060000 0.000000 6320163
-0.030000 -0.060000 0.000000 6320163
-0.030000 -0.060000 0.260000 6320163
0.030000 -0.060000 0.000000 6320163
0.030000 -0.060000 0.260000 6320163
0.040000 0.060000 0.130000 6320163
-0.040000 0.060000 0.130000 6320163
-0.040000 -0.060000 0.130000 6320163
0.040000 -0.060000 0.130000 6320163
0.040000 0.060000 0.140000 6320163
0.040000 0.060000 0.120000 6320163
-0.040000 0.060000 0.140000 6320163
-0.040000 0.060000 0.120000 6320163
-0.040000 -0.060000 0.120000 6320163
-0.040000 -0.060000 0.140000 6320163
0.040000 -0.060000 0.120000 6320163
0.040000 -0.060000 0.140000 6320163
0.040000 0.060000 0.150000 6320163
0.040000 0.060000 0.110000 6320163
-0.040000 0.060000 0.150000 6320163
-0.040000 0.060000 0.110000 6320163
-0.040000 -0.060000 0.110000 6320163
-0.040000 -0.060000 0.150000 6320163
0.040000 -0.060000 0.110000 6320163
0.040000 -0.060000 0.150000 6320163
0.040000 0.060000 0.160000 6320163
0.040000 0.060000 0.100000 6320163
-0.040000 0.060000 0.160000 6320163
-0.040000 0.060000 0.100000 6320163
-0.040000 -0.060000 0.100000 6320163
-0.040000 -0.060000 0.160000 6320163
0.040000 -0.060000 0.100000 6320163
0.040000 -0.060000 0.160000 6320163
0.040000 0.060000 0.170000 6320163
0.040000 0.060000 0.090000 6320163
-0.040000 0.060000 0.170000 6320163
-0.040000 0.060000 0.090000 6320163
-0.040000 -0.060000 0.090000 6320163
-0.040000 -0.060000 0.170000 6320163
0.040000 -0.060000 0.090000 6320163
0.040000 -0.060000 0.170000 6320163
0.040000 0.060000 0.180000 6320163
0.040000 0.060000 0.080000 6320163
-0.040000 0.060000 0.180000 6320163
-0.040000 0.060000 0.080000 6320163
-0.040000 -0.060000 0.080000 6320163
-0.040000 -0.060000 0.180000 6320163
0.040000 -0.060000 0.080000 6320163
0.040000 -0.060000 0.180000 6320163
0.040000 0.060000 0.190000 6320163
0.040000 0.060000 0.070000 6320163
-0.040000 0.060000 0.190000 6320163
-0.040000 0.060000 0.070000 6320163
-0.040000 -0.060000 0.070000 6320163
-0.040000 -0.060000 0.190000 6320163
0.040000 -0.060000 0.070000 6320163
0.040000 -0.060000 0.190000 6320163
0.040000 0.060000 0.200000 6320163
0.040000 0.060000 0.060000 6320163
-0.040000 0.060000 0.200000 6320163
-0.040000 0.060000 0.060000 6320163
-0.040000 -0.060000 0.060000 6320163
-0.040000 -0.060000 0.200000 6320163
0.040000 -0.060000 0.060000 6320163
0.040000 -0.060000 0.200000 6320163
0.040000 0.060000 0.210000 6320163
0.040000 0.060000 0.050000 6320163
-0.040000 0.060000 0.210000 6320163
-0.040000 0.060000 0.050000 6320163
-0.040000 -0.060000 0.050000 6320163
-0.040000 -0.060000 0.210000 6320163
0.040000 -0.060000 0.050000 6320163
0.040000 -0.060000 0.210000 6320163
0.040000 0.060000 0.220000 6320163
0.040000 0.060000 0.040000 6320163
-0.040000 0.060000 0.220000 6320163
-0.040000 0.060000 0.040000 6320163
-0.040000 -0.060000 0.040000 6320163
-0.040000 -0.060000 0.220000 6320163
0.040000 -0.060000 0.040000 6320163
0.040000 -0.060000 0.220000 6320163
0.040000 0.060000 0.230000 6320163
0.040000 0.060000 0.030000 6320163
-0.040000 0.060000 0.230000 6320163
-0.040000 0.060000 0.030000 6320163
-0.040000 -0.060000 0.030000 6320163
-0.040000 -0.060000 0.230000 6320163
0.040000 -0.060000 0.030000 6320163
0.040000 -0.060000 0.230000 6320163
0.040000 0.060000 0.240000 6320163
0.040000 0.060000 0.020000 6320163
-0.040000 0.060000 0.240000 6320163
-0.040000 0.060000 0.020000 6320163
-0.040000 -0.060000 0.020000 6320163
-0.040000 -0.060000 0.240000 6320163
0.040000 -0.060000 0.020000 6320163
0.040000 -0.060000 0.240000 6320163
0.040000 0.060000 0.250000 6320163
0.040000 0.060000 0.010000 6320163
-0.040000 0.060000 0.250000 6320163
-0.040000 0.060000 0.010000 6320163
-0.040000 -0.060000 0.010000 6320163
-0.040000 -0.060000 0.250000 6320163
0.040000 -0.060000 0.010000 6320163
0.040000 -0.060000 0.250000 6320163
0.040000 0.060000 0.260000 6320163
0.040000 0.060000 0.000000 6320163
-0.040000 0.060000 0.260000 6320163
-0.040000 0.060000 0.000000 6320163
-0.040000 -0.060000 0.000000 6320163
-0.040000 -0.060000 0.260000 6320163
0.040000 -0.060000 0.000000 6320163
0.040000 -0.060000 0.260000 6320163
0.050000 0.060000 0.130000 6320163
-0.050000 0.060000 0.130000 6320163
-0.050000 -0.060000 0.130000 6320163
0.050000 -0.060000 0.130000 6320163
0.050000 0.060000 0.140000 6320163
0.050000 0.060000 0.120000 6320163
-0.050000 0.060000 0.140000 6320163
-0.050000 0.060000 0.120000 6320163
-0.050000 -0.060000 0.120000 6320163
-0.050000 -0.060000 0.140000 6320163
0.050000 -0.060000 0.120000 6320163
0.050000 -0.060000 0.140000 6320163
0.050000 0.060000 0.150000 6320163
0.050000 0.060000 0.110000 6320163
-0.050000 0.060000 0.150000 6320163
-0.050000 0.060000 0.110000 6320163
-0.050000 -0.060000 0.110000 6320163
-0.050000 -0.060000 0.150000 6320163
0.050000 -0.060000 0.110000 6320163
0.050000 -0.060000 0.150000 6320163
0.050000 0.060000 0.160000 6320163
0.050000 0.060000 0.100000 6320163
-0.050000 0.060000 0.160000 6320163
-0.050000 0.060000 0.100000 6320163
-0.050000 -0.060000 0.100000 6320163
-0.050000 -0.060000 0.160000 6320163
0.050000 -0.060000 0.100000 6320163
0.050000 -0.060000 0.160000 6320163
0.050000 0.060000 0.170000 6320163
0.050000 0.060000 0.090000 6320163
-0.050000 0.060000 0.170000 6320163
-0.050000 0.060000 0.090000 6320163
-0.050000 -0.060000 0.090000 6320163
-0.050000 -0.060000 0.170000 6320163
0.050000 -0.060000 0.090000 6320163
0.050000 -0.060000 0.170000 6320163
0.050000 0.060000 0.180000 6320163
0.050000 0.060000 0.080000 6320163
-0.050000 0.060000 0.180000 6320163
-0.050000 0.060000 0.080000 6320163
-0.050000 -0.060000 0.080000 6320163
-0.050000 -0.060000 0.180000 6320163
0.050000 -0.060000 0.080000 6320163
0.050000 -0.060000 0.180000 6320163
0.050000 0.060000 0.190000 6320163
0.050000 0.060000 0.070000 6320163
-0.050000 0.060000 0.190000 6320163
-0.050000 0.060000 0.070000 6320163
-0.050000 -0.060000 0.070000 6320163
-0.050000 -0.060000 0.190000 6320163
0.050000 -0.060000 0.070000 6320163
0.050000 -0.060000 0.190000 6320163
0.050000 0.060000 0.200000 6320163
0.050000 0.060000 0.060000 6320163
-0.050000 0.060000 0.200000 6320163
-0.050000 0.060000 0.060000 6320163
-0.050000 -0.060000 0.060000 6320163
-0.050000 -0.060000 0.200000 6320163
0.050000 -0.060000 0.060000 6320163
0.050000 -0.060000 0.200000 6320163
0.050000 0.060000 0.210000 6320163
0.050000 0.060000 0.050000 6320163
-0.050000 0.060000 0.210000 6320163
-0.050000 0.060000 0.050000 6320163
-0.050000 -0.060000 0.050000 6320163
-0.050000 -0.060000 0.210000 6320163
0.050000 -0.060000 0.050000 6320163
0.050000 -0.060000 0.210000 6320163
0.050000 0.060000 0.220000 6320163
0.050000 0.060000 0.040000 6320163
-0.050000 0.060000 0.220000 6320163
-0.050000 0.060000 0.040000 6320163
-0.050000 -0.060000 0.040000 6320163
-0.050000 -0.060000 0.220000 6320163
0.050000 -0.060000 0.040000 6320163
0.050000 -0.060000 0.220000 6320163
0.050000 0.060000 0.230000 6320163
0.050000 0.060000 0.030000 6320163
-0.050000 0.060000 0.230000 6320163
-0.050000 0.060000 0.030000 6320163
-0.050000 -0.060000 0.030000 6320163
-0.050000 -0.060000 0.230000 6320163
0.050000 -0.060000 0.030000 6320163
0.050000 -0.060000 0.230000 6320163
0.050000 0.060000 0.240000 6320163
0.050000 0.060000 0.020000 6320163
-0.050000 0.060000 0.240000 6320163
-0.050000 0.060000 0.020000 6320163
-0.050000 -0.060000 0.020000 6320163
-0.050000 -0.060000 0.240000 6320163
0.050000 -0.060000 0.020000 6320163
0.050000 -0.060000 0.240000 6320163
0.050000 0.060000 0.250000 6320163
0.050000 0.060000 0.010000 6320163
-0.050000 0.060000 0.250000 6320163
-0.050000 0.060000 0.010000 6320163
-0.050000 -0.060000 0.010000 6320163
-0.050000 -0.060000 0.250000 6320163
0.050000 -0.060000 0.010000 6320163
0.050000 -0.060000 0.250000 6320163
0.050000 0.060000 0.260000 6320163
0.050000 0.060000 0.000000 6320163
-0.050000 0.060000 0.260000 6320163
-0.050000 0.060000 0.000000 6320163
-0.050000 -0.060000 0.000000 6320163
-0.050000 -0.060000 0.260000 6320163
0.050000 -0.060000 0.000000 6320163
0.050000 -0.060000 0.260000 6320163
0.060000 0.060000 0.130000 6320163
-0.060000 0.060000 0.130000 6320163
-0.060000 -0.060000 0.130000 6320163
0.060000 -0.060000 0.130000 6320163
0.060000 0.060000 0.140000 6320163
0.060000 0.060000 0.120000 6320163
-0.060000 0.060000 0.140000 6320163
-0.060000 0.060000 0.120000 6320163
-0.060000 -0.060000 0.120000 6320163
-0.060000 -0.060000 0.140000 6320163
0.060000 -0.060000 0.120000 6320163
0.060000 -0.060000 0.140000 6320163
0.060000 0.060000 0.150000 6320163
0.060000 0.060000 0.110000 6320163
-0.060000 0.060000 0.150000 6320163
-0.060000 0.060000 0.110000 6320163
-0.060000 -0.060000 0.110000 6320163
-0.060000 -0.060000 0.150000 6320163
0.060000 -0.060000 0.110000 6320163
0.060000 -0.060000 0.150000 6320163
0.060000 0.060000 0.160000 6320163
0.060000 0.060000 0.100000 6320163
-0.060000 0.060000 0.160000 6320163
-0.060000 0.060000 0.100000 6320163
-0.060000 -0.060000 0.100000 6320163
-0.060000 -0.060000 0.160000 6320163
0.060000 -0.060000 0.100000 6320163
0.060000 -0.060000 0.160000 6320163
0.060000 0.060000 0.170000 6320163
0.060000 0.060000 0.090000 6320163
-0.060000 0.060000 0.170000 6320163
-0.060000 0.060000 0.090000 6320163
-0.060000 -0.060000 0.090000 6320163
-0.060000 -0.060000 0.170000 6320163
0.060000 -0.060000 0.090000 6320163
0.060000 -0.060000 0.170000 6320163
0.060000 0.060000 0.180000 6320163
0.060000 0.060000 0.080000 6320163
-0.060000 0.060000 0.180000 6320163
-0.060000 0.060000 0.080000 6320163
-0.060000 -0.060000 0.080000 6320163
-0.060000 -0.060000 0.180000 6320163
0.060000 -0.060000 0.080000 6320163
0.060000 -0.060000 0.180000 6320163
0.060000 0.060000 0.190000 6320163
0.060000 0.060000 0.070000 6320163
-0.060000 0.060000 0.190000 6320163
-0.060000 0.060000 0.070000 6320163
-0.060000 -0.060000 0.070000 6320163
-0.060000 -0.060000 0.190000 6320163
0.060000 -0.060000 0.070000 6320163
0.060000 -0.060000 0.190000 6320163
0.060000 0.060000 0.200000 6320163
0.060000 0.060000 0.060000 6320163
-0.060000 0.060000 0.200000 6320163
-0.060000 0.060000 0.060000 6320163
-0.060000 -0.060000 0.060000 6320163
-0.060000 -0.060000 0.200000 6320163
0.060000 -0.060000 0.060000 6320163
0.060000 -0.060000 0.200000 6320163
0.060000 0.060000 0.210000 6320163
0.060000 0.060000 0.050000 6320163
-0.060000 0.060000 0.210000 6320163
-0.060000 0.060000 0.050000 6320163
-0.060000 -0.060000 0.050000 6320163
-0.060000 -0.060000 0.210000 6320163
0.060000 -0.060000 0.050000 6320163
0.060000 -0.060000 0.210000 6320163
0.060000 0.060000 0.220000 6320163
0.060000 0.060000 0.040000 6320163
-0.060000 0.060000 0.220000 6320163
-0.060000 0.060000 0.040000 6320163
-0.060000 -0.060000 0.040000 6320163
-0.060000 -0.060000 0.220000 6320163
0.060000 -0.060000 0.040000 6320163
0.060000 -0.060000 0.220000 6320163
0.060000 0.060000 0.230000 6320163
0.060000 0.060000 0.030000 6320163
-0.060000 0.060000 0.230000 6320163
-0.060000 0.060000 0.030000 6320163
-0.060000 -0.060000 0.030000 6320163
-0.060000 -0.060000 0.230000 6320163
0.060000 -0.060000 0.030000 6320163
0.060000 -0.060000 0.230000 6320163
0.060000 0.060000 0.240000 6320163
0.060000 0.060000 0.020000 6320163
-0.060000 0.060000 0.240000 6320163
-0.060000 0.060000 0.020000 6320163
-0.060000 -0.060000 0.020000 6320163
-0.060000 -0.060000 0.240000 6320163
0.060000 -0.060000 0.020000 6320163
0.060000 -0.060000 0.240000 6320163
0.060000 0.060000 0.250000 6320163
0.060000 0.060000 0.010000 6320163
-0.060000 0.060000 0.250000 6320163
-0.060000 0.060000 0.010000 6320163
-0.060000 -0.060000 0.010000 6320163
-0.060000 -0.060000 0.250000 6320163
0.060000 -0.060000 0.010000 6320163
0.060000 -0.060000 0.250000 6320163
0.060000 0.060000 0.260000 6320163
0.060000 0.060000 0.000000 6320163
