VERSION .7
FIELDS x y z rgb
SIZE 4 4 4 4
TYPE F F F I
COUNT 1 1 1 1
WIDTH 1318
HEIGHT 1
VIEWPOINT 0 0 0 1 0 0 0
POINTS 1318
DATA ascii
0.213386 -0.206419 0.040814 7284776
0.180993 -0.206204 0.119240 7284776
0.157977 -0.206052 0.063830 7284776
0.155136 -0.056030 0.054595 7284776
0.185823 -0.056233 0.128475 7284776
0.210545 -0.056397 0.031579 7284776
0.241232 -0.056600 0.105459 7284776
0.240237 -0.206597 0.105459 7284776
0.209550 -0.206394 0.031579 7284776
0.184828 -0.206230 0.128475 7284776
0.154141 -0.206026 0.054595 7284776
0.151300 -0.056004 0.045360 7284776
0.189659 -0.056258 0.137710 7284776
0.206709 -0.056371 0.022344 7284776
0.245068 -0.056626 0.114694 7284776
0.244073 -0.206622 0.114694 7284776
0.205714 -0.206368 0.022344 7284776
0.188664 -0.206255 0.137710 7284776
0.150306 -0.206001 0.045360 7284776
0.147464 -0.055979 0.036125 7284776
0.193495 -0.056284 0.146945 7284776
0.202873 -0.056346 0.013109 7284776
0.248903 -0.056651 0.123929 7284776
0.247909 -0.206648 0.123929 7284776
0.201879 -0.206343 0.013109 7284776
0.192500 -0.206281 0.146945 7284776
0.146470 -0.205975 0.036125 7284776
0.161245 -0.056070 0.095371 7284776
0.235123 -0.056560 0.064683 7284776
0.234129 -0.206557 0.064683 7284776
0.160250 -0.206067 0.095371 7284776
0.157409 -0.056045 0.086136 7284776
0.165080 -0.056096 0.104606 7284776
0.231287 -0.056534 0.055448 7284776
0.238959 -0.056585 0.073918 7284776
0.237964 -0.206582 0.073918 7284776
0.230293 -0.206531 0.055448 7284776
0.164086 -0.206092 0.104606 7284776
0.156414 -0.206041 0.086136 7284776
0.153573 -0.056019 0.076901 7284776
0.168916 -0.056121 0.113841 7284776
0.227451 -0.056509 0.046213 7284776
0.242795 -0.056611 0.083153 7284776
0.241800 -0.206607 0.083153 7284776
0.226457 -0.206506 0.046213 7284776
0.167922 -0.206118 0.113841 7284776
0.152578 -0.206016 0.076901 7284776
0.149737 -0.055994 0.067666 7284776
0.172752 -0.056146 0.123076 7284776
0.223615 -0.056484 0.036978 7284776
0.246631 -0.056636 0.092388 7284776
0.245636 -0.206633 0.092388 7284776
0.222621 -0.206480 0.036978 7284776
0.171758 -0.206143 0.123076 7284776
0.148743 -0.205991 0.067666 7284776
0.145901 -0.055968 0.058431 7284776
0.176588 -0.056172 0.132311 7284776
0.219779 -0.056458 0.027743 7284776
0.250466 -0.056662 0.101623 7284776
0.249472 -0.206658 0.101623 7284776
0.218785 -0.206455 0.027743 7284776
0.175594 -0.206169 0.132311 7284776
0.144907 -0.205965 0.058431 7284776
0.142065 -0.055943 0.049196 7284776
0.180424 -0.056197 0.141546 7284776
0.215944 -0.056433 0.018508 7284776
0.254302 -0.056687 0.110858 7284776
0.253308 -0.206684 0.110858 7284776
0.214949 -0.206429 0.018508 7284776
0.179430 -0.206194 0.141546 7284776
0.141071 -0.205940 0.049196 7284776
0.138229 -0.055918 0.039961 7284776
0.184260 -0.056223 0.150781 7284776
0.212108 -0.056407 0.009273 7284776
0.258138 -0.056712 0.120093 7284776
0.257144 -0.206709 0.120093 7284776
0.211113 -0.206404 0.009273 7284776
0.183265 -0.206219 0.150781 7284776
0.137235 -0.205914 0.039961 7284776
0.152010 -0.056009 0.099207 7284776
0.244358 -0.056621 0.060847 7284776
0.243363 -0.206618 0.060847 7284776
0.151015 -0.206006 0.099207 7284776
0.148174 -0.055983 0.089972 7284776
0.155846 -0.056034 0.108442 7284776
0.240522 -0.056596 0.051612 7284776
0.248194 -0.056646 0.070082 7284776
0.247199 -0.206643 0.070082 7284776
0.239528 -0.206592 0.051612 7284776
0.154851 -0.206031 0.108442 7284776
0.147179 -0.205980 0.089972 7284776
0.144338 -0.055958 0.080737 7284776
0.159681 -0.056060 0.117677 7284776
0.236686 -0.056570 0.042377 7284776
0.252030 -0.056672 0.079317 7284776
0.251035 -0.206669 0.079317 7284776
0.235692 -0.206567 0.042377 7284776
0.158687 -0.206056 0.117677 7284776
0.143344 -0.205955 0.080737 7284776
0.140502 -0.055933 0.071502 7284776
0.163517 -0.056085 0.126912 7284776
0.232850 -0.056545 0.033142 7284776
0.255865 -0.056697 0.088552 7284776
0.254871 -0.206694 0.088552 7284776
0.231856 -0.206541 0.033142 7284776
0.162523 -0.206082 0.126912 7284776
0.139508 -0.205929 0.071502 7284776
0.136666 -0.055907 0.062267 7284776
0.167353 -0.056111 0.136147 7284776
0.229014 -0.056519 0.023907 7284776
0.259701 -0.056723 0.097787 7284776
0.258707 -0.206719 0.097787 7284776
0.228020 -0.206516 0.023907 7284776
0.166359 -0.206107 0.136147 7284776
0.135672 -0.205904 0.062267 7284776
0.132830 -0.055882 0.053032 7284776
0.171189 -0.056136 0.145382 7284776
0.225178 -0.056494 0.014672 7284776
0.263537 -0.056748 0.107022 7284776
0.262543 -0.206745 0.107022 7284776
0.224184 -0.206491 0.014672 7284776
0.170195 -0.206133 0.145382 7284776
0.131836 -0.205878 0.053032 7284776
0.128994 -0.055856 0.043797 7284776
0.175025 -0.056161 0.154617 7284776
0.221342 -0.056468 0.005437 7284776
0.267373 -0.056774 0.116257 7284776
0.266379 -0.206770 0.116257 7284776
0.220348 -0.206465 0.005437 7284776
0.174031 -0.206158 0.154617 7284776
0.128000 -0.205853 0.043797 7284776
0.142775 -0.055948 0.103043 7284776
0.253593 -0.056682 0.057011 7284776
0.252598 -0.206679 0.057011 7284776
0.141781 -0.205944 0.103043 7284776
0.138939 -0.055922 0.093808 7284776
0.146611 -0.055973 0.112278 7284776
0.249757 -0.056657 0.047776 7284776
0.257428 -0.056708 0.066246 7284776
0.256434 -0.206704 0.066246 7284776
0.248762 -0.206654 0.047776 7284776
0.145616 -0.205970 0.112278 7284776
0.137945 -0.205919 0.093808 7284776
0.135103 -0.055897 0.084573 7284776
0.150447 -0.055999 0.121513 7284776
0.245921 -0.056631 0.038541 7284776
0.261264 -0.056733 0.075481 7284776
0.260270 -0.206730 0.075481 7284776
0.244926 -0.206628 0.038541 7284776
0.149452 -0.205995 0.121513 7284776
0.134109 -0.205894 0.084573 7284776
0.131267 -0.055871 0.075338 7284776
0.154283 -0.056024 0.130748 7284776
0.242085 -0.056606 0.029306 7284776
0.265100 -0.056759 0.084716 7284776
0.264106 -0.206755 0.084716 7284776
0.241091 -0.206603 0.029306 7284776
0.153288 -0.206021 0.130748 7284776
0.130273 -0.205868 0.075338 7284776
0.127431 -0.055846 0.066103 7284776
0.158118 -0.056049 0.139983 7284776
0.238249 -0.056581 0.020071 7284776
0.268936 -0.056784 0.093951 7284776
0.267942 -0.206781 0.093951 7284776
0.237255 -0.206577 0.020071 7284776
0.157124 -0.206046 0.139983 7284776
0.126437 -0.205843 0.066103 7284776
0.123595 -0.055821 0.056868 7284776
0.161954 -0.056075 0.149218 7284776
0.234413 -0.056555 0.010836 7284776
0.272772 -0.056809 0.103186 7284776
0.271778 -0.206806 0.103186 7284776
0.233419 -0.206552 0.010836 7284776
0.160960 -0.206072 0.149218 7284776
0.122601 -0.205817 0.056868 7284776
0.119760 -0.055795 0.047632 7284776
0.165790 -0.056100 0.158453 7284776
0.230577 -0.056530 0.001601 7284776
0.276608 -0.056835 0.112421 7284776
0.275614 -0.206832 0.112421 7284776
0.229583 -0.206526 0.001601 7284776
0.164796 -0.206097 0.158453 7284776
0.118765 -0.205792 0.047632 7284776
0.133540 -0.055886 0.106879 7284776
0.262827 -0.056743 0.053175 7284776
0.261833 -0.206740 0.053175 7284776
0.132546 -0.205883 0.106879 7284776
0.129704 -0.055861 0.097644 7284776
0.137376 -0.055912 0.116114 7284776
0.258991 -0.056718 0.043940 7284776
0.266663 -0.056769 0.062410 7284776
0.265669 -0.206766 0.062410 7284776
0.257997 -0.206715 0.043940 7284776
0.136382 -0.205909 0.116114 7284776
0.128710 -0.205858 0.097644 7284776
0.125868 -0.055836 0.088408 7284776
0.141212 -0.055937 0.125349 7284776
0.255156 -0.056693 0.034705 7284776
0.270499 -0.056794 0.071645 7284776
0.269505 -0.206791 0.071645 7284776
0.254161 -0.206689 0.034705 7284776
0.140218 -0.205934 0.125349 7284776
0.124874 -0.205832 0.088408 7284776
0.122032 -0.055810 0.079173 7284776
0.145048 -0.055963 0.134584 7284776
0.251320 -0.056667 0.025470 7284776
0.274335 -0.056820 0.080880 7284776
0.273341 -0.206816 0.080880 7284776
0.250325 -0.206664 0.025470 7284776
0.144053 -0.205959 0.134584 7284776
0.121038 -0.205807 0.079173 7284776
0.118197 -0.055785 0.069938 7284776
0.148884 -0.055988 0.143819 7284776
0.247484 -0.056642 0.016235 7284776
0.278171 -0.056845 0.090115 7284776
0.277177 -0.206842 0.090115 7284776
0.246490 -0.206638 0.016235 7284776
0.147889 -0.205985 0.143819 7284776
0.117202 -0.205781 0.069938 7284776
0.114361 -0.055759 0.060703 7284776
0.152719 -0.056014 0.153054 7284776
0.243648 -0.056616 0.007000 7284776
0.282007 -0.056871 0.099350 7284776
0.281012 -0.206867 0.099350 7284776
0.242654 -0.206613 0.007000 7284776
0.151725 -0.206010 0.153054 7284776
0.113366 -0.205756 0.060703 7284776
0.110525 -0.055734 0.051468 7284776
0.156555 -0.056039 0.162289 7284776
0.239812 -0.056591 -0.002235 7284776
0.285843 -0.056896 0.108585 7284776
0.284848 -0.206893 0.108585 7284776
0.238818 -0.206588 -0.002235 7284776
0.155561 -0.206036 0.162289 7284776
0.109530 -0.205731 0.051468 7284776
0.124305 -0.055825 0.110714 7284776
0.272062 -0.056805 0.049339 7284776
0.271068 -0.206801 0.049339 7284776
0.123311 -0.205822 0.110714 7284776
0.120469 -0.055800 0.101479 7284776
0.128141 -0.055851 0.119949 7284776
0.268226 -0.056779 0.040104 7284776
0.275898 -0.056830 0.058574 7284776
0.274904 -0.206827 0.058574 7284776
0.267232 -0.206776 0.040104 7284776
0.127147 -0.205847 0.119949 7284776
0.119475 -0.205797 0.101479 7284776
0.116634 -0.055774 0.092244 7284776
0.131977 -0.055876 0.129184 7284776
0.264390 -0.056754 0.030869 7284776
0.279734 -0.056856 0.067809 7284776
0.278740 -0.206852 0.067809 7284776
0.263396 -0.206751 0.030869 7284776
0.130983 -0.205873 0.129184 7284776
0.115639 -0.205771 0.092244 7284776
0.112798 -0.055749 0.083009 7284776
0.135813 -0.055902 0.138420 7284776
0.260555 -0.056728 0.021634 7284776
0.283570 -0.056881 0.077044 7284776
0.282575 -0.206878 0.077044 7284776
0.259560 -0.206725 0.021634 7284776
0.134819 -0.205898 0.138420 7284776
0.111803 -0.205746 0.083009 7284776
0.108962 -0.055724 0.073774 7284776
0.139649 -0.055927 0.147655 7284776
0.256719 -0.056703 0.012399 7284776
0.287406 -0.056906 0.086279 7284776
0.286411 -0.206903 0.086279 7284776
0.255724 -0.206700 0.012399 7284776
0.138654 -0.205924 0.147655 7284776
0.107967 -0.205720 0.073774 7284776
0.105126 -0.055698 0.064539 7284776
0.143485 -0.055952 0.156890 7284776
0.252883 -0.056678 0.003164 7284776
0.291242 -0.056932 0.095514 7284776
0.290247 -0.206929 0.095514 7284776
0.251888 -0.206674 0.003164 7284776
0.142490 -0.205949 0.156890 7284776
0.104132 -0.205695 0.064539 7284776
0.101290 -0.055673 0.055304 7284776
0.147321 -0.055978 0.166125 7284776
0.249047 -0.056652 -0.006071 7284776
0.295077 -0.056957 0.104749 7284776
0.294083 -0.206954 0.104749 7284776
0.248053 -0.206649 -0.006071 7284776
0.146326 -0.205975 0.166125 7284776
0.100296 -0.205669 0.055304 7284776
0.115070 -0.055764 0.114550 7284776
0.281297 -0.056866 0.045503 7284776
0.280303 -0.206863 0.045503 7284776
0.114076 -0.205761 0.114550 7284776
0.111235 -0.055739 0.105315 7284776
0.118906 -0.055789 0.123785 7284776
0.277461 -0.056841 0.036268 7284776
0.285133 -0.056891 0.054738 7284776
0.284139 -0.206888 0.054738 7284776
0.276467 -0.206837 0.036268 7284776
0.117912 -0.205786 0.123785 7284776
0.110240 -0.205735 0.105315 7284776
0.107399 -0.055713 0.096080 7284776
0.122742 -0.055815 0.133020 7284776
0.273625 -0.056815 0.027033 7284776
0.288969 -0.056917 0.063973 7284776
0.287974 -0.206913 0.063973 7284776
0.272631 -0.206812 0.027033 7284776
0.121748 -0.205812 0.133020 7284776
0.106404 -0.205710 0.096080 7284776
0.103563 -0.055688 0.086845 7284776
0.126578 -0.055840 0.142255 7284776
0.269789 -0.056790 0.017798 7284776
0.292805 -0.056942 0.073208 7284776
0.291810 -0.206939 0.073208 7284776
0.268795 -0.206786 0.017798 7284776
0.125584 -0.205837 0.142255 7284776
0.102569 -0.205684 0.086845 7284776
0.099727 -0.055662 0.077610 7284776
0.130414 -0.055866 0.151490 7284776
0.265953 -0.056764 0.008563 7284776
0.296640 -0.056968 0.082443 7284776
0.295646 -0.206964 0.082443 7284776
0.264959 -0.206761 0.008563 7284776
0.129420 -0.205862 0.151490 7284776
0.098733 -0.205659 0.077610 7284776
0.095891 -0.055637 0.068375 7284776
0.134250 -0.055891 0.160725 7284776
0.262118 -0.056739 -0.000672 7284776
0.300476 -0.056993 0.091678 7284776
0.299482 -0.206990 0.091678 7284776
0.261123 -0.206735 -0.000672 7284776
0.133256 -0.205888 0.160725 7284776
0.094897 -0.205634 0.068375 7284776
0.092055 -0.055611 0.059140 7284776
0.138086 -0.055917 0.169960 7284776
0.258282 -0.056713 -0.009907 7284776
0.304312 -0.057019 0.100913 7284776
0.303318 -0.207015 0.100913 7284776
0.257287 -0.206710 -0.009907 7284776
0.137091 -0.205913 0.169960 7284776
0.091061 -0.205608 0.059140 7284776
0.105836 -0.055703 0.118386 7284776
0.290532 -0.056927 0.041667 7284776
0.289537 -0.206924 0.041667 7284776
0.104841 -0.205699 0.118386 7284776
0.102000 -0.055677 0.109151 7284776
0.109672 -0.055728 0.127621 7284776
0.286696 -0.056902 0.032432 7284776
0.294368 -0.056953 0.050902 7284776
0.293373 -0.206949 0.050902 7284776
0.285702 -0.206898 0.032432 7284776
0.108677 -0.205725 0.127621 7284776
0.101005 -0.205674 0.109151 7284776
0.098164 -0.055652 0.099916 7284776
0.113507 -0.055754 0.136856 7284776
0.282860 -0.056876 0.023197 7284776
0.298204 -0.056978 0.060137 7284776
0.297209 -0.206975 0.060137 7284776
0.281866 -0.206873 0.023197 7284776
0.112513 -0.205750 0.136856 7284776
0.097170 -0.205649 0.099916 7284776
0.094328 -0.055627 0.090681 7284776
0.117343 -0.055779 0.146091 7284776
0.279024 -0.056851 0.013962 7284776
0.302039 -0.057003 0.069372 7284776
0.301045 -0.207000 0.069372 7284776
0.278030 -0.206848 0.013962 7284776
0.116349 -0.205776 0.146091 7284776
0.093334 -0.205623 0.090681 7284776
0.090492 -0.055601 0.081446 7284776
0.121179 -0.055805 0.155326 7284776
0.275188 -0.056825 0.004727 7284776
0.305875 -0.057029 0.078607 7284776
0.304881 -0.207026 0.078607 7284776
0.274194 -0.206822 0.004727 7284776
0.120185 -0.205801 0.155326 7284776
0.089498 -0.205598 0.081446 7284776
0.086656 -0.055576 0.072211 7284776
0.125015 -0.055830 0.164561 7284776
0.271352 -0.056800 -0.004508 7284776
0.309711 -0.057054 0.087842 7284776
0.308717 -0.207051 0.087842 7284776
0.270358 -0.206797 -0.004508 7284776
0.124021 -0.205827 0.164561 7284776
0.085662 -0.205572 0.072211 7284776
0.082820 -0.055550 0.062976 7284776
0.128851 -0.055855 0.173796 7284776
0.267516 -0.056775 -0.013743 7284776
0.313547 -0.057080 0.097077 7284776
0.312553 -0.207076 0.097077 7284776
0.266522 -0.206771 -0.013743 7284776
0.127857 -0.205852 0.173796 7284776
0.081826 -0.205547 0.062976 7284776
0.096601 -0.055642 0.122222 7284776
0.299767 -0.056988 0.037831 7284776
0.298772 -0.206985 0.037831 7284776
0.095607 -0.205638 0.122222 7284776
0.092765 -0.055616 0.112987 7284776
0.100437 -0.055667 0.131457 7284776
0.295931 -0.056963 0.028596 7284776
0.303602 -0.057014 0.047066 7284776
0.302608 -0.207011 0.047066 7284776
0.294936 -0.206960 0.028596 7284776
0.099442 -0.205664 0.131457 7284776
0.091771 -0.205613 0.112987 7284776
0.088929 -0.055591 0.103752 7284776
0.104273 -0.055692 0.140692 7284776
0.292095 -0.056938 0.019361 7284776
0.307438 -0.057039 0.056301 7284776
0.306444 -0.207036 0.056301 7284776
0.291100 -0.206934 0.019361 7284776
0.103278 -0.205689 0.140692 7284776
0.087935 -0.205587 0.103752 7284776
0.085093 -0.055565 0.094517 7284776
0.108109 -0.055718 0.149927 7284776
0.288259 -0.056912 0.010126 7284776
0.311274 -0.057065 0.065536 7284776
0.310280 -0.207061 0.065536 7284776
0.287265 -0.206909 0.010126 7284776
0.107114 -0.205715 0.149927 7284776
0.084099 -0.205562 0.094517 7284776
0.081257 -0.055540 0.085282 7284776
0.111944 -0.055743 0.159162 7284776
0.284423 -0.056887 0.000891 7284776
0.315110 -0.057090 0.074771 7284776
0.314116 -0.207087 0.074771 7284776
0.283429 -0.206883 0.000891 7284776
0.110950 -0.205740 0.159162 7284776
0.080263 -0.205537 0.085282 7284776
0.077421 -0.055514 0.076047 7284776
0.115780 -0.055769 0.168397 7284776
0.280587 -0.056861 -0.008344 7284776
0.318946 -0.057116 0.084006 7284776
0.317952 -0.207112 0.084006 7284776
0.279593 -0.206858 -0.008344 7284776
0.114786 -0.205765 0.168397 7284776
0.076427 -0.205511 0.076047 7284776
0.073586 -0.055489 0.066812 7284776
0.119616 -0.055794 0.177632 7284776
0.276751 -0.056836 -0.017579 7284776
0.322782 -0.057141 0.093241 7284776
0.321788 -0.207138 0.093241 7284776
0.275757 -0.206833 -0.017579 7284776
0.118622 -0.205791 0.177632 7284776
0.072591 -0.205486 0.066812 7284776
0.087366 -0.055580 0.126058 7284776
0.309001 -0.057050 0.033995 7284776
0.308007 -0.207046 0.033995 7284776
0.086372 -0.205577 0.126058 7284776
0.083530 -0.055555 0.116823 7284776
0.091202 -0.055606 0.135293 7284776
0.305166 -0.057024 0.024760 7284776
0.312837 -0.057075 0.043230 7284776
0.311843 -0.207072 0.043230 7284776
0.304171 -0.207021 0.024760 7284776
0.090208 -0.205602 0.135293 7284776
0.082536 -0.205552 0.116823 7284776
0.079694 -0.055530 0.107588 7284776
0.095038 -0.055631 0.144528 7284776
0.301330 -0.056999 0.015525 7284776
0.316673 -0.057100 0.052465 7284776
0.315679 -0.207097 0.052465 7284776
0.300335 -0.206995 0.015525 7284776
0.094043 -0.205628 0.144528 7284776
0.078700 -0.205526 0.107588 7284776
0.075858 -0.055504 0.098353 7284776
0.098874 -0.055657 0.153763 7284776
0.297494 -0.056973 0.006290 7284776
0.320509 -0.057126 0.061700 7284776
0.319515 -0.207123 0.061700 7284776
0.296499 -0.206970 0.006290 7284776
0.097879 -0.205653 0.153763 7284776
0.074864 -0.205501 0.098353 7284776
0.072023 -0.055479 0.089118 7284776
0.102710 -0.055682 0.162998 7284776
0.293658 -0.056948 -0.002945 7284776
0.324345 -0.057151 0.070935 7284776
0.323351 -0.207148 0.070935 7284776
0.292664 -0.206945 -0.002945 7284776
0.101715 -0.205679 0.162998 7284776
0.071028 -0.205475 0.089118 7284776
0.068187 -0.055453 0.079883 7284776
0.106545 -0.055708 0.172233 7284776
0.289822 -0.056922 -0.012180 7284776
0.328181 -0.057177 0.080170 7284776
0.327186 -0.207173 0.080170 7284776
0.288828 -0.206919 -0.012180 7284776
0.105551 -0.205704 0.172233 7284776
0.067192 -0.205450 0.079883 7284776
0.064351 -0.055428 0.070648 7284776
0.110381 -0.055733 0.181468 7284776
0.285986 -0.056897 -0.021415 7284776
0.332017 -0.057202 0.089405 7284776
0.331022 -0.207199 0.089405 7284776
0.284992 -0.206894 -0.021415 7284776
0.109387 -0.205730 0.181468 7284776
0.063356 -0.205424 0.070648 7284776
0.078131 -0.055519 0.129894 7284776
0.318236 -0.057111 0.030159 7284776
0.317242 -0.207108 0.030159 7284776
0.077137 -0.205516 0.129894 7284776
0.074295 -0.055494 0.120659 7284776
0.081967 -0.055545 0.139129 7284776
0.314400 -0.057085 0.020924 7284776
0.322072 -0.057136 0.039394 7284776
0.321078 -0.207133 0.039394 7284776
0.313406 -0.207082 0.020924 7284776
0.080973 -0.205541 0.139129 7284776
0.073301 -0.205490 0.120659 7284776
0.070459 -0.055468 0.111424 7284776
0.085803 -0.055570 0.148364 7284776
0.310564 -0.057060 0.011689 7284776
0.325908 -0.057162 0.048629 7284776
0.324914 -0.207158 0.048629 7284776
0.309570 -0.207057 0.011689 7284776
0.084809 -0.205567 0.148364 7284776
0.069465 -0.205465 0.111424 7284776
0.066624 -0.055443 0.102189 7284776
0.089639 -0.055595 0.157599 7284776
0.306729 -0.057035 0.002454 7284776
0.329744 -0.057187 0.057864 7284776
0.328750 -0.207184 0.057864 7284776
0.305734 -0.207031 0.002454 7284776
0.088645 -0.205592 0.157599 7284776
0.065629 -0.205440 0.102189 7284776
0.062788 -0.055417 0.092954 7284776
0.093475 -0.055621 0.166834 7284776
0.302893 -0.057009 -0.006781 7284776
0.333580 -0.057213 0.067099 7284776
0.332585 -0.207209 0.067099 7284776
0.301898 -0.207006 -0.006781 7284776
0.092480 -0.205618 0.166834 7284776
0.061793 -0.205414 0.092954 7284776
0.058952 -0.055392 0.083719 7284776
0.097311 -0.055646 0.176069 7284776
0.299057 -0.056984 -0.016016 7284776
0.337416 -0.057238 0.076334 7284776
0.336421 -0.207235 0.076334 7284776
0.298062 -0.206980 -0.016016 7284776
0.096316 -0.205643 0.176069 7284776
0.057958 -0.205389 0.083719 7284776
0.055116 -0.055367 0.074484 7284776
0.101147 -0.055672 0.185304 7284776
0.295221 -0.056958 -0.025251 7284776
0.341251 -0.057263 0.085569 7284776
0.340257 -0.207260 0.085569 7284776
0.294227 -0.206955 -0.025251 7284776
0.100152 -0.205668 0.185304 7284776
0.054122 -0.205363 0.074484 7284776
0.068896 -0.055458 0.133730 7284776
0.327471 -0.057172 0.026323 7284776
0.326477 -0.207169 0.026323 7284776
0.067902 -0.205455 0.133730 7284776
0.065061 -0.055432 0.124495 7284776
0.072732 -0.055483 0.142965 7284776
0.323635 -0.057147 0.017088 7284776
0.331307 -0.057197 0.035558 7284776
0.330313 -0.207194 0.035558 7284776
0.322641 -0.207143 0.017088 7284776
0.071738 -0.205480 0.142965 7284776
0.064066 -0.205429 0.124495 7284776
0.061225 -0.055407 0.115260 7284776
0.076568 -0.055509 0.152200 7284776
0.319799 -0.057121 0.007853 7284776
0.335143 -0.057223 0.044793 7284776
0.334148 -0.207220 0.044793 7284776
0.318805 -0.207118 0.007853 7284776
0.075574 -0.205505 0.152200 7284776
0.060230 -0.205404 0.115260 7284776
0.057389 -0.055382 0.106025 7284776
0.080404 -0.055534 0.161435 7284776
0.315963 -0.057096 -0.001382 7284776
0.338979 -0.057248 0.054028 7284776
0.337984 -0.207245 0.054028 7284776
0.314969 -0.207092 -0.001382 7284776
0.079410 -0.205531 0.161435 7284776
0.056394 -0.205378 0.106025 7284776
0.053553 -0.055356 0.096790 7284776
0.084240 -0.055560 0.170670 7284776
0.312127 -0.057070 -0.010617 7284776
0.342815 -0.057274 0.063263 7284776
0.341820 -0.207270 0.063263 7284776
0.311133 -0.207067 -0.010617 7284776
0.083246 -0.205556 0.170670 7284776
0.052559 -0.205353 0.096790 7284776
0.049717 -0.055331 0.087555 7284776
0.088076 -0.055585 0.179905 7284776
0.308292 -0.057045 -0.019852 7284776
0.346650 -0.057299 0.072498 7284776
0.345656 -0.207296 0.072498 7284776
0.307297 -0.207042 -0.019852 7284776
0.087082 -0.205582 0.179905 7284776
0.048723 -0.205327 0.087555 7284776
0.045881 -0.055305 0.078320 7284776
0.091912 -0.055610 0.189140 7284776
0.304456 -0.057019 -0.029087 7284776
0.350486 -0.057325 0.081733 7284776
0.349492 -0.207321 0.081733 7284776
0.303461 -0.207016 -0.029087 7284776
0.090917 -0.205607 0.189140 7284776
0.044887 -0.205302 0.078320 7284776
0.059662 -0.055397 0.137566 7284776
0.336706 -0.057233 0.022487 7284776
0.335711 -0.207230 0.022487 7284776
0.058667 -0.205393 0.137566 7284776
0.055826 -0.055371 0.128331 7284776
0.063498 -0.055422 0.146801 7284776
0.332870 -0.057208 0.013252 7284776
0.340542 -0.057259 0.031722 7284776
0.339547 -0.207255 0.031722 7284776
0.331876 -0.207205 0.013252 7284776
0.062503 -0.205419 0.146801 7284776
0.054831 -0.205368 0.128331 7284776
0.051990 -0.055346 0.119096 7284776
0.067333 -0.055448 0.156036 7284776
0.329034 -0.057182 0.004017 7284776
0.344378 -0.057284 0.040957 7284776
0.343383 -0.207281 0.040957 7284776
0.328040 -0.207179 0.004017 7284776
0.066339 -0.205444 0.156036 7284776
0.050996 -0.205343 0.119096 7284776
0.048154 -0.055320 0.109861 7284776
0.071169 -0.055473 0.165271 7284776
0.325198 -0.057157 -0.005218 7284776
0.348213 -0.057310 0.050192 7284776
0.347219 -0.207306 0.050192 7284776
0.324204 -0.207154 -0.005218 7284776
0.070175 -0.205470 0.165271 7284776
0.047160 -0.205317 0.109861 7284776
0.044318 -0.055295 0.100626 7284776
0.075005 -0.055498 0.174506 7284776
0.321362 -0.057132 -0.014453 7284776
0.352049 -0.057335 0.059427 7284776
0.351055 -0.207332 0.059427 7284776
0.320368 -0.207128 -0.014453 7284776
0.074011 -0.205495 0.174506 7284776
0.043324 -0.205292 0.100626 7284776
0.040482 -0.055270 0.091391 7284776
0.078841 -0.055524 0.183741 7284776
0.317526 -0.057106 -0.023688 7284776
0.355885 -0.057360 0.068662 7284776
0.354891 -0.207357 0.068662 7284776
0.316532 -0.207103 -0.023688 7284776
0.077847 -0.205521 0.183741 7284776
0.039488 -0.205266 0.091391 7284776
0.036646 -0.055244 0.082156 7284776
0.082677 -0.055549 0.192976 7284776
0.313691 -0.057081 -0.032923 7284776
0.359721 -0.057386 0.077897 7284776
0.358727 -0.207383 0.077897 7284776
0.312696 -0.207077 -0.032923 7284776
0.081683 -0.205546 0.192976 7284776
0.035652 -0.205241 0.082156 7284776
0.050427 -0.055335 0.141402 7284776
0.345941 -0.057294 0.018651 7284776
0.344946 -0.207291 0.018651 7284776
0.049433 -0.205332 0.141402 7284776
0.046591 -0.055310 0.132167 7284776
0.054263 -0.055361 0.150637 7284776
0.342105 -0.057269 0.009416 7284776
0.349776 -0.057320 0.027886 7284776
0.348782 -0.207317 0.027886 7284776
0.341110 -0.207266 0.009416 7284776
0.053268 -0.205358 0.150637 7284776
0.045597 -0.205307 0.132167 7284776
0.042755 -0.055285 0.122932 7284776
0.058099 -0.055386 0.159872 7284776
0.338269 -0.057244 0.000181 7284776
0.353612 -0.057345 0.037121 7284776
0.352618 -0.207342 0.037121 7284776
0.337275 -0.207240 0.000181 7284776
0.057104 -0.205383 0.159872 7284776
0.041761 -0.205281 0.122932 7284776
0.038919 -0.055259 0.113697 7284776
0.061934 -0.055412 0.169107 7284776
0.334433 -0.057218 -0.009054 7284776
0.357448 -0.057371 0.046356 7284776
0.356454 -0.207367 0.046356 7284776
0.333439 -0.207215 -0.009054 7284776
0.060940 -0.205408 0.169107 7284776
0.037925 -0.205256 0.113697 7284776
0.035083 -0.055234 0.104462 7284776
0.065770 -0.055437 0.178342 7284776
0.330597 -0.057193 -0.018289 7284776
0.361284 -0.057396 0.055591 7284776
0.360290 -0.207393 0.055591 7284776
0.329603 -0.207189 -0.018289 7284776
0.064776 -0.205434 0.178342 7284776
0.034089 -0.205230 0.104462 7284776
0.031247 -0.055208 0.095227 7284776
0.069606 -0.055463 0.187577 7284776
0.326761 -0.057167 -0.027524 7284776
0.365120 -0.057422 0.064826 7284776
0.364126 -0.207418 0.064826 7284776
0.325767 -0.207164 -0.027524 7284776
0.068612 -0.205459 0.187577 7284776
0.030253 -0.205205 0.095227 7284776
0.027412 -0.055183 0.085992 7284776
0.073442 -0.055488 0.196812 7284776
0.322925 -0.057142 -0.036759 7284776
0.368956 -0.057447 0.074061 7284776
0.367962 -0.207444 0.074061 7284776
0.321931 -0.207139 -0.036759 7284776
0.072448 -0.205485 0.196812 7284776
0.026417 -0.205180 0.085992 7284776
0.041192 -0.055274 0.145238 7284776
0.355175 -0.057356 0.014815 7284776
0.354181 -0.207352 0.014815 7284776
0.040198 -0.205271 0.145238 7284776
0.037356 -0.055249 0.136003 7284776
0.045028 -0.055300 0.154473 7284776
0.351340 -0.057330 0.005580 7284776
0.359011 -0.057381 0.024050 7284776
0.358017 -0.207378 0.024050 7284776
0.350345 -0.207327 0.005580 7284776
0.044034 -0.205296 0.154473 7284776
0.036362 -0.205246 0.136003 7284776
0.033520 -0.055223 0.126768 7284776
0.048864 -0.055325 0.163708 7284776
0.347504 -0.057305 -0.003655 7284776
0.362847 -0.057407 0.033285 7284776
0.361853 -0.207403 0.033285 7284776
0.346509 -0.207302 -0.003655 7284776
0.047869 -0.205322 0.163708 7284776
0.032526 -0.205220 0.126768 7284776
0.029684 -0.055198 0.117533 7284776
0.052700 -0.055351 0.172943 7284776
0.343668 -0.057279 -0.012890 7284776
0.366683 -0.057432 0.042520 7284776
0.365689 -0.207429 0.042520 7284776
0.342673 -0.207276 -0.012890 7284776
0.051705 -0.205347 0.172943 7284776
0.028690 -0.205195 0.117533 7284776
0.025849 -0.055173 0.108298 7284776
0.056536 -0.055376 0.182178 7284776
0.339832 -0.057254 -0.022125 7284776
0.370519 -0.057457 0.051755 7284776
0.369525 -0.207454 0.051755 7284776
0.338838 -0.207251 -0.022125 7284776
0.055541 -0.205373 0.182178 7284776
0.024854 -0.205169 0.108298 7284776
0.022013 -0.055147 0.099063 7284776
0.060371 -0.055401 0.191413 7284776
0.335996 -0.057229 -0.031360 7284776
0.374355 -0.057483 0.060990 7284776
0.373360 -0.207480 0.060990 7284776
0.335002 -0.207225 -0.031360 7284776
0.059377 -0.205398 0.191413 7284776
0.021018 -0.205144 0.099063 7284776
0.018177 -0.055122 0.089828 7284776
0.064207 -0.055427 0.200648 7284776
0.332160 -0.057203 -0.040595 7284776
0.378191 -0.057508 0.070225 7284776
0.377196 -0.207505 0.070225 7284776
0.331166 -0.207200 -0.040595 7284776
0.063213 -0.205424 0.200648 7284776
0.017182 -0.205118 0.089828 7284776
0.031957 -0.055213 0.149074 7284776
0.364410 -0.057417 0.010979 7284776
0.363416 -0.207414 0.010979 7284776
0.030963 -0.205210 0.149074 7284776
0.028121 -0.055188 0.139839 7284776
0.035793 -0.055238 0.158309 7284776
0.360574 -0.057391 0.001744 7284776
0.368246 -0.057442 0.020214 7284776
0.367252 -0.207439 0.020214 7284776
0.359580 -0.207388 0.001744 7284776
0.034799 -0.205235 0.158309 7284776
0.027127 -0.205184 0.139839 7284776
0.024285 -0.055162 0.130604 7284776
0.039629 -0.055264 0.167544 7284776
0.356738 -0.057366 -0.007491 7284776
0.372082 -0.057468 0.029449 7284776
0.371088 -0.207464 0.029449 7284776
0.355744 -0.207363 -0.007491 7284776
0.038635 -0.205261 0.167544 7284776
0.023291 -0.205159 0.130604 7284776
0.020450 -0.055137 0.121369 7284776
0.043465 -0.055289 0.176779 7284776
0.352903 -0.057341 -0.016726 7284776
0.375918 -0.057493 0.038684 7284776
0.374924 -0.207490 0.038684 7284776
0.351908 -0.207337 -0.016726 7284776
0.042471 -0.205286 0.176779 7284776
0.019455 -0.205133 0.121369 7284776
0.016614 -0.055111 0.112134 7284776
0.047301 -0.055315 0.186014 7284776
0.349067 -0.057315 -0.025961 7284776
0.379754 -0.057519 0.047919 7284776
0.378759 -0.207515 0.047919 7284776
0.348072 -0.207312 -0.025961 7284776
0.046306 -0.205311 0.186014 7284776
0.015619 -0.205108 0.112134 7284776
0.012778 -0.055086 0.102899 7284776
0.051137 -0.055340 0.195249 7284776
0.345231 -0.057290 -0.035196 7284776
0.383590 -0.057544 0.057154 7284776
0.382595 -0.207541 0.057154 7284776
0.344236 -0.207286 -0.035196 7284776
0.050142 -0.205337 0.195249 7284776
0.011783 -0.205083 0.102899 7284776
0.008942 -0.055060 0.093664 7284776
0.054973 -0.055366 0.204484 7284776
0.341395 -0.057264 -0.044431 7284776
0.387426 -0.057569 0.066389 7284776
0.386431 -0.207566 0.066389 7284776
0.340401 -0.207261 -0.044431 7284776
0.053978 -0.205362 0.204484 7284776
0.007948 -0.205057 0.093664 7284776
0.022722 -0.055152 0.152910 7284776
0.373645 -0.057478 0.007143 7284776
0.372651 -0.207475 0.007143 7284776
0.021728 -0.205149 0.152910 7284776
0.018887 -0.055126 0.143675 7284776
0.026558 -0.055177 0.162145 7284776
0.369809 -0.057453 -0.002092 7284776
0.377481 -0.057504 0.016378 7284776
0.376487 -0.207500 0.016378 7284776
0.368815 -0.207449 -0.002092 7284776
0.025564 -0.205174 0.162145 7284776
0.017892 -0.205123 0.143675 7284776
0.015051 -0.055101 0.134440 7284776
0.030394 -0.055203 0.171380 7284776
0.365973 -0.057427 -0.011327 7284776
0.381317 -0.057529 0.025613 7284776
0.380322 -0.207526 0.025613 7284776
0.364979 -0.207424 -0.011327 7284776
0.029400 -0.205199 0.171380 7284776
0.014056 -0.205098 0.134440 7284776
0.011215 -0.055076 0.125205 7284776
0.034230 -0.055228 0.180615 7284776
0.362137 -0.057402 -0.020562 7284776
0.385153 -0.057554 0.034848 7284776
0.384158 -0.207551 0.034848 7284776
0.361143 -0.207399 -0.020562 7284776
0.033236 -0.205225 0.180615 7284776
0.010220 -0.205072 0.125205 7284776
0.007379 -0.055050 0.115970 7284776
0.038066 -0.055254 0.189850 7284776
0.358302 -0.057376 -0.029797 7284776
0.388989 -0.057580 0.044083 7284776
0.387994 -0.207577 0.044083 7284776
0.357307 -0.207373 -0.029797 7284776
0.037072 -0.205250 0.189850 7284776
0.006385 -0.205047 0.115970 7284776
0.003543 -0.055025 0.106735 7284776
0.041902 -0.055279 0.199085 7284776
0.354466 -0.057351 -0.039032 7284776
0.392824 -0.057605 0.053318 7284776
0.391830 -0.207602 0.053318 7284776
0.353471 -0.207348 -0.039032 7284776
0.040907 -0.205276 0.199085 7284776
0.002549 -0.205021 0.106735 7284776
-0.000293 -0.054999 0.097500 7284776
0.045738 -0.055304 0.208320 7284776
0.350630 -0.057326 -0.048267 7284776
0.396660 -0.057631 0.062553 7284776
0.395666 -0.207627 0.062553 7284776
0.349635 -0.207322 -0.048267 7284776
0.044743 -0.205301 0.208320 7284776
-0.001287 -0.204996 0.097500 7284776
0.013488 -0.055091 0.156746 7284776
0.382880 -0.057539 0.003307 7284776
0.381885 -0.207536 0.003307 7284776
0.012493 -0.205087 0.156746 7284776
0.009652 -0.055065 0.147511 7284776
0.017323 -0.055116 0.165981 7284776
0.379044 -0.057514 -0.005928 7284776
0.386716 -0.057565 0.012542 7284776
0.385721 -0.207561 0.012542 7284776
0.378050 -0.207511 -0.005928 7284776
0.016329 -0.205113 0.165981 7284776
0.008657 -0.205062 0.147511 7284776
0.005816 -0.055040 0.138276 7284776
0.021159 -0.055141 0.175216 7284776
0.375208 -0.057488 -0.015163 7284776
0.390552 -0.057590 0.021777 7284776
0.389557 -0.207587 0.021777 7284776
0.374214 -0.207485 -0.015163 7284776
0.020165 -0.205138 0.175216 7284776
0.004822 -0.205036 0.138276 7284776
0.001980 -0.055014 0.129041 7284776
0.024995 -0.055167 0.184451 7284776
0.371372 -0.057463 -0.024398 7284776
0.394387 -0.057616 0.031012 7284776
0.393393 -0.207612 0.031012 7284776
0.370378 -0.207460 -0.024398 7284776
0.024001 -0.205164 0.184451 7284776
0.000986 -0.205011 0.129041 7284776
-0.001856 -0.054989 0.119806 7284776
0.028831 -0.055192 0.193686 7284776
0.367536 -0.057438 -0.033633 7284776
0.398223 -0.057641 0.040248 7284776
0.397229 -0.207638 0.040248 7284776
0.366542 -0.207434 -0.033633 7284776
0.027837 -0.205189 0.193686 7284776
-0.002850 -0.204986 0.119806 7284776
-0.005692 -0.054963 0.110571 7284776
0.032667 -0.055218 0.202921 7284776
0.363700 -0.057412 -0.042868 7284776
0.402059 -0.057666 0.049483 7284776
0.401065 -0.207663 0.049483 7284776
0.362706 -0.207409 -0.042868 7284776
0.031673 -0.205214 0.202921 7284776
-0.006686 -0.204960 0.110571 7284776
-0.009528 -0.054938 0.101336 7284776
0.036503 -0.055243 0.212156 7284776
0.359865 -0.057387 -0.052103 7284776
0.405895 -0.057692 0.058718 7284776
0.404901 -0.207689 0.058718 7284776
0.358870 -0.207383 -0.052103 7284776
0.035509 -0.205240 0.212156 7284776
-0.010522 -0.204935 0.101336 7284776
0.004253 -0.055029 0.160582 7284776
0.392115 -0.057601 -0.000528 7284776
0.391120 -0.207597 -0.000528 7284776
0.003258 -0.205026 0.160582 7284776
0.000417 -0.055004 0.151347 7284776
0.008089 -0.055055 0.169817 7284776
0.388279 -0.057575 -0.009764 7284776
0.395951 -0.057626 0.008707 7284776
0.394956 -0.207623 0.008707 7284776
0.387284 -0.207572 -0.009764 7284776
0.007094 -0.205052 0.169817 7284776
-0.000577 -0.205001 0.151347 7284776
-0.003419 -0.054979 0.142112 7284776
0.011925 -0.055080 0.179052 7284776
0.384443 -0.057550 -0.018999 7284776
0.399786 -0.057651 0.017942 7284776
0.398792 -0.207648 0.017942 7284776
0.383449 -0.207546 -0.018999 7284776
0.010930 -0.205077 0.179052 7284776
-0.004413 -0.204975 0.142112 7284776
-0.007255 -0.054953 0.132877 7284776
0.015760 -0.055106 0.188287 7284776
0.380607 -0.057524 -0.028234 7284776
0.403622 -0.057677 0.027177 7284776
0.402628 -0.207674 0.027177 7284776
0.379613 -0.207521 -0.028234 7284776
0.014766 -0.205102 0.188287 7284776
-0.008249 -0.204950 0.132877 7284776
-0.011091 -0.054928 0.123642 7284776
0.019596 -0.055131 0.197522 7284776
0.376771 -0.057499 -0.037469 7284776
0.407458 -0.057702 0.036412 7284776
0.406464 -0.207699 0.036412 7284776
0.375777 -0.207496 -0.037469 7284776
0.018602 -0.205128 0.197522 7284776
-0.012085 -0.204924 0.123642 7284776
-0.014927 -0.054902 0.114407 7284776
0.023432 -0.055157 0.206757 7284776
0.372935 -0.057473 -0.046704 7284776
0.411294 -0.057728 0.045647 7284776
0.410300 -0.207724 0.045647 7284776
0.371941 -0.207470 -0.046704 7284776
0.022438 -0.205153 0.206757 7284776
-0.015921 -0.204899 0.114407 7284776
-0.018762 -0.054877 0.105172 7284776
0.027268 -0.055182 0.215992 7284776
0.369099 -0.057448 -0.055939 7284776
0.415130 -0.057753 0.054882 7284776
0.414136 -0.207750 0.054882 7284776
0.368105 -0.207445 -0.055939 7284776
0.026274 -0.205179 0.215992 7284776
-0.019757 -0.204874 0.105172 7284776
-0.004982 -0.054968 0.164418 7284776
0.401349 -0.057662 -0.004364 7284776
0.400355 -0.207658 -0.004364 7284776
-0.005976 -0.204965 0.164418 7284776
-0.008818 -0.054943 0.155183 7284776
-0.001146 -0.054994 0.173653 7284776
0.397514 -0.057636 -0.013599 7284776
0.405185 -0.057687 0.004871 7284776
0.404191 -0.207684 0.004871 7284776
0.396519 -0.207633 -0.013599 7284776
-0.002140 -0.204990 0.173653 7284776
-0.009812 -0.204939 0.155183 7284776
-0.012654 -0.054917 0.145948 7284776
0.002690 -0.055019 0.182888 7284776
0.393678 -0.057611 -0.022834 7284776
0.409021 -0.057713 0.014106 7284776
0.408027 -0.207709 0.014106 7284776
0.392683 -0.207608 -0.022834 7284776
0.001695 -0.205016 0.182888 7284776
-0.013648 -0.204914 0.145948 7284776
-0.016490 -0.054892 0.136713 7284776
0.006526 -0.055044 0.192123 7284776
0.389842 -0.057585 -0.032069 7284776
0.412857 -0.057738 0.023341 7284776
0.411863 -0.207735 0.023341 7284776
0.388847 -0.207582 -0.032069 7284776
0.005531 -0.205041 0.192123 7284776
-0.017484 -0.204889 0.136713 7284776
-0.020326 -0.054866 0.127478 7284776
0.010362 -0.055070 0.201358 7284776
0.386006 -0.057560 -0.041304 7284776
0.416693 -0.057763 0.032576 7284776
0.415699 -0.207760 0.032576 7284776
0.385012 -0.207557 -0.041304 7284776
0.009367 -0.205067 0.201358 7284776
-0.021320 -0.204863 0.127478 7284776
-0.024161 -0.054841 0.118243 7284776
0.014197 -0.055095 0.210593 7284776
0.382170 -0.057535 -0.050540 7284776
0.420529 -0.057789 0.041811 7284776
0.419535 -0.207786 0.041811 7284776
0.381176 -0.207531 -0.050540 7284776
0.013203 -0.205092 0.210593 7284776
-0.025156 -0.204838 0.118243 7284776
-0.027997 -0.054816 0.109008 7284776
0.018033 -0.055121 0.219828 7284776
0.378334 -0.057509 -0.059775 7284776
0.424365 -0.057814 0.051046 7284776
0.423370 -0.207811 0.051046 7284776
0.377340 -0.207506 -0.059775 7284776
0.017039 -0.205117 0.219828 7284776
-0.028992 -0.204812 0.109008 7284776
-0.014217 -0.054907 0.168254 7284776
0.410584 -0.057723 -0.008200 7284776
0.409590 -0.207720 -0.008200 7284776
-0.015211 -0.204904 0.168254 7284776
-0.018053 -0.054882 0.159019 7284776
-0.010381 -0.054932 0.177489 7284776
0.406748 -0.057698 -0.017435 7284776
0.414420 -0.057748 0.001035 7284776
0.413426 -0.207745 0.001035 7284776
0.405754 -0.207694 -0.017435 7284776
-0.011375 -0.204929 0.177489 7284776
-0.019047 -0.204878 0.159019 7284776
-0.021889 -0.054856 0.149784 7284776
-0.006545 -0.054958 0.186724 7284776
0.402912 -0.057672 -0.026670 7284776
0.418256 -0.057774 0.010270 7284776
0.417262 -0.207771 0.010270 7284776
0.401918 -0.207669 -0.026670 7284776
-0.007539 -0.204955 0.186724 7284776
-0.022883 -0.204853 0.149784 7284776
-0.025724 -0.054831 0.140549 7284776
-0.002709 -0.054983 0.195959 7284776
0.399077 -0.057647 -0.035905 7284776
0.422092 -0.057799 0.019505 7284776
0.421098 -0.207796 0.019505 7284776
0.398082 -0.207643 -0.035905 7284776
-0.003703 -0.204980 0.195959 7284776
-0.026719 -0.204827 0.140549 7284776
-0.029560 -0.054805 0.131314 7284776
0.001127 -0.055009 0.205194 7284776
0.395241 -0.057621 -0.045140 7284776
0.425928 -0.057825 0.028740 7284776
0.424933 -0.207821 0.028740 7284776
0.394246 -0.207618 -0.045140 7284776
0.000132 -0.205005 0.205194 7284776
-0.030555 -0.204802 0.131314 7284776
-0.033396 -0.054780 0.122079 7284776
0.004963 -0.055034 0.214429 7284776
0.391405 -0.057596 -0.054375 7284776
0.429764 -0.057850 0.037975 7284776
0.428769 -0.207847 0.037975 7284776
0.390411 -0.207593 -0.054375 7284776
0.003968 -0.205031 0.214429 7284776
-0.034391 -0.204777 0.122079 7284776
-0.037232 -0.054754 0.112844 7284776
0.008798 -0.055060 0.223664 7284776
0.387569 -0.057570 -0.063610 7284776
0.433600 -0.057876 0.047210 7284776
0.432605 -0.207872 0.047210 7284776
0.386575 -0.207567 -0.063610 7284776
0.007804 -0.205056 0.223664 7284776
-0.038226 -0.204751 0.112844 7284776
-0.023452 -0.054846 0.172090 7284776
0.419819 -0.057784 -0.012036 7284776
0.418825 -0.207781 -0.012036 7284776
-0.024446 -0.204842 0.172090 7284776
-0.027287 -0.054820 0.162855 7284776
-0.019616 -0.054871 0.181325 7284776
0.415983 -0.057759 -0.021271 7284776
0.423655 -0.057810 -0.002801 7284776
0.422661 -0.207806 -0.002801 7284776
0.414989 -0.207755 -0.021271 7284776
-0.020610 -0.204868 0.181325 7284776
-0.028282 -0.204817 0.162855 7284776
-0.031123 -0.054795 0.153620 7284776
-0.015780 -0.054897 0.190560 7284776
0.412147 -0.057733 -0.030506 7284776
0.427491 -0.057835 0.006434 7284776
0.426496 -0.207832 0.006434 7284776
0.411153 -0.207730 -0.030506 7284776
-0.016774 -0.204893 0.190560 7284776
-0.032118 -0.204792 0.153620 7284776
-0.034959 -0.054769 0.144385 7284776
-0.011944 -0.054922 0.199795 7284776
0.408311 -0.057708 -0.039741 7284776
0.431327 -0.057860 0.015669 7284776
0.430332 -0.207857 0.015669 7284776
0.407317 -0.207705 -0.039741 7284776
-0.012938 -0.204919 0.199795 7284776
-0.035954 -0.204766 0.144385 7284776
-0.038795 -0.054744 0.135150 7284776
-0.008108 -0.054947 0.209030 7284776
0.404476 -0.057682 -0.048976 7284776
0.435163 -0.057886 0.024904 7284776
0.434168 -0.207883 0.024904 7284776
0.403481 -0.207679 -0.048976 7284776
-0.009102 -0.204944 0.209030 7284776
-0.039789 -0.204741 0.135150 7284776
-0.042631 -0.054719 0.125915 7284776
-0.004272 -0.054973 0.218265 7284776
0.400640 -0.057657 -0.058211 7284776
0.438998 -0.057911 0.034139 7284776
0.438004 -0.207908 0.034139 7284776
0.399645 -0.207654 -0.058211 7284776
-0.005267 -0.204970 0.218265 7284776
-0.043625 -0.204715 0.125915 7284776
-0.046467 -0.054693 0.116680 7284776
-0.000436 -0.054998 0.227500 7284776
0.396804 -0.057632 -0.067446 7284776
0.442834 -0.057937 0.043374 7284776
0.441840 -0.207933 0.043374 7284776
0.395809 -0.207628 -0.067446 7284776
-0.001431 -0.204995 0.227500 7284776
-0.047461 -0.204690 0.116680 7284776
-0.032686 -0.054785 0.175926 7284776
0.429054 -0.057845 -0.015872 7284776
0.428060 -0.207842 -0.015872 7284776
-0.033681 -0.204781 0.175926 7284776
-0.036522 -0.054759 0.166691 7284776
-0.028851 -0.054810 0.185161 7284776
0.425218 -0.057820 -0.025107 7284776
0.432890 -0.057871 -0.006637 7284776
0.431895 -0.207868 -0.006637 7284776
0.424224 -0.207817 -0.025107 7284776
-0.029845 -0.204807 0.185161 7284776
-0.037517 -0.204756 0.166691 7284776
-0.040358 -0.054734 0.157456 7284776
-0.025015 -0.054835 0.194396 7284776
0.421382 -0.057795 -0.034342 7284776
0.436726 -0.057896 0.002598 7284776
0.435731 -0.207893 0.002598 7284776
0.420388 -0.207791 -0.034342 7284776
-0.026009 -0.204832 0.194396 7284776
-0.041352 -0.204730 0.157456 7284776
-0.044194 -0.054708 0.148221 7284776
-0.021179 -0.054861 0.203631 7284776
0.417546 -0.057769 -0.043577 7284776
0.440561 -0.057922 0.011833 7284776
0.439567 -0.207918 0.011833 7284776
0.416552 -0.207766 -0.043577 7284776
-0.022173 -0.204858 0.203631 7284776
-0.045188 -0.204705 0.148221 7284776
-0.048030 -0.054683 0.138986 7284776
-0.017343 -0.054886 0.212866 7284776
0.413710 -0.057744 -0.052812 7284776
0.444397 -0.057947 0.021068 7284776
0.443403 -0.207944 0.021068 7284776
0.412716 -0.207740 -0.052812 7284776
-0.018337 -0.204883 0.212866 7284776
-0.049024 -0.204680 0.138986 7284776
-0.051866 -0.054657 0.129751 7284776
-0.013507 -0.054912 0.222101 7284776
0.409874 -0.057718 -0.062047 7284776
0.448233 -0.057973 0.030303 7284776
0.447239 -0.207969 0.030303 7284776
0.408880 -0.207715 -0.062047 7284776
-0.014501 -0.204908 0.222101 7284776
-0.052860 -0.204654 0.129751 7284776
-0.055702 -0.054632 0.120516 7284776
-0.009671 -0.054937 0.231336 7284776
0.406039 -0.057693 -0.071282 7284776
0.452069 -0.057998 0.039538 7284776
0.451075 -0.207995 0.039538 7284776
0.405044 -0.207690 -0.071282 7284776
-0.010665 -0.204934 0.231336 7284776
-0.056696 -0.204629 0.120516 7284776
-0.041921 -0.054723 0.179762 7284776
0.438289 -0.057907 -0.019708 7284776
0.437294 -0.207903 -0.019708 7284776
-0.042916 -0.204720 0.179762 7284776
-0.045757 -0.054698 0.170527 7284776
-0.038085 -0.054749 0.188997 7284776
0.434453 -0.057881 -0.028943 7284776
0.442125 -0.057932 -0.010473 7284776
0.441130 -0.207929 -0.010473 7284776
0.433458 -0.207878 -0.028943 7284776
-0.039080 -0.204745 0.188997 7284776
-0.046751 -0.204695 0.170527 7284776
-0.049593 -0.054672 0.161292 7284776
-0.034249 -0.054774 0.198232 7284776
0.430617 -0.057856 -0.038178 7284776
0.445960 -0.057957 -0.001238 7284776
0.444966 -0.207954 -0.001238 7284776
0.429623 -0.207852 -0.038178 7284776
-0.035244 -0.204771 0.198232 7284776
-0.050587 -0.204669 0.161292 7284776
-0.053429 -0.054647 0.152057 7284776
-0.030414 -0.054800 0.207467 7284776
0.426781 -0.057830 -0.047413 7284776
0.449796 -0.057983 0.007997 7284776
0.448802 -0.207980 0.007997 7284776
0.425787 -0.207827 -0.047413 7284776
-0.031408 -0.204796 0.207467 7284776
-0.054423 -0.204644 0.152057 7284776
-0.057265 -0.054622 0.142822 7284776
-0.026578 -0.054825 0.216702 7284776
0.422945 -0.057805 -0.056648 7284776
0.453632 -0.058008 0.017232 7284776
0.452638 -0.208005 0.017232 7284776
0.421951 -0.207802 -0.056648 7284776
-0.027572 -0.204822 0.216702 7284776
-0.058259 -0.204618 0.142822 7284776
-0.061101 -0.054596 0.133587 7284776
-0.022742 -0.054850 0.225937 7284776
0.419109 -0.057779 -0.065883 7284776
0.457468 -0.058034 0.026467 7284776
0.456474 -0.208030 0.026467 7284776
0.418115 -0.207776 -0.065883 7284776
-0.023736 -0.204847 0.225937 7284776
-0.062095 -0.204593 0.133587 7284776
-0.064936 -0.054571 0.124352 7284776
-0.018906 -0.054876 0.235172 7284776
0.415273 -0.057754 -0.075118 7284776
0.461304 -0.058059 0.035702 7284776
0.460310 -0.208056 0.035702 7284776
0.414279 -0.207751 -0.075118 7284776
-0.019900 -0.204873 0.235172 7284776
-0.065931 -0.204567 0.124352 7284776
-0.051156 -0.054662 0.183598 7284776
0.447523 -0.057968 -0.023544 7284776
0.446529 -0.207965 -0.023544 7284776
-0.052150 -0.204659 0.183598 7284776
-0.054992 -0.054637 0.174363 7284776
-0.047320 -0.054688 0.192833 7284776
0.443688 -0.057942 -0.032779 7284776
0.451359 -0.057993 -0.014309 7284776
0.450365 -0.207990 -0.014309 7284776
0.442693 -0.207939 -0.032779 7284776
-0.048314 -0.204684 0.192833 7284776
-0.055986 -0.204633 0.174363 7284776
-0.058828 -0.054611 0.165128 7284776
-0.043484 -0.054713 0.202068 7284776
0.439852 -0.057917 -0.042014 7284776
0.455195 -0.058019 -0.005074 7284776
0.454201 -0.208015 -0.005074 7284776
0.438857 -0.207914 -0.042014 7284776
-0.044479 -0.204710 0.202068 7284776
-0.059822 -0.204608 0.165128 7284776
-0.062664 -0.054586 0.155893 7284776
-0.039648 -0.054738 0.211303 7284776
0.436016 -0.057892 -0.051249 7284776
0.459031 -0.058044 0.004161 7284776
0.458037 -0.208041 0.004161 7284776
0.435021 -0.207888 -0.051249 7284776
-0.040643 -0.204735 0.211303 7284776
-0.063658 -0.204583 0.155893 7284776
-0.066500 -0.054560 0.146658 7284776
-0.035812 -0.054764 0.220538 7284776
0.432180 -0.057866 -0.060484 7284776
0.462867 -0.058070 0.013396 7284776
0.461873 -0.208066 0.013396 7284776
0.431186 -0.207863 -0.060484 7284776
-0.036807 -0.204761 0.220538 7284776
-0.067494 -0.204557 0.146658 7284776
-0.070335 -0.054535 0.137423 7284776
-0.031977 -0.054789 0.229773 7284776
0.428344 -0.057841 -0.069719 7284776
0.466703 -0.058095 0.022631 7284776
0.465709 -0.208092 0.022631 7284776
0.427350 -0.207837 -0.069719 7284776
-0.032971 -0.204786 0.229773 7284776
-0.071330 -0.204532 0.137423 7284776
-0.074171 -0.054510 0.128188 7284776
-0.028141 -0.054815 0.239008 7284776
0.424508 -0.057815 -0.078954 7284776
0.470539 -0.058120 0.031866 7284776
0.469544 -0.208117 0.031866 7284776
0.423514 -0.207812 -0.078954 7284776
-0.029135 -0.204811 0.239008 7284776
-0.075166 -0.204506 0.128188 7284776
-0.056271 -0.129630 0.185516 7284776
0.451644 -0.132997 -0.025462 7284776
-0.060106 -0.129604 0.176281 7284776
-0.052435 -0.129655 0.194751 7284776
0.447808 -0.132971 -0.034697 7284776
0.455480 -0.133022 -0.016227 7284776
-0.063942 -0.129579 0.167046 7284776
-0.048599 -0.129681 0.203986 7284776
0.443972 -0.132946 -0.043932 7284776
0.459315 -0.133048 -0.006992 7284776
-0.067778 -0.129554 0.157811 7284776
-0.044763 -0.129706 0.213221 7284776
0.440136 -0.132921 -0.053167 7284776
0.463151 -0.133073 0.002243 7284776
-0.071614 -0.129528 0.148576 7284776
-0.040927 -0.129732 0.222456 7284776
0.436300 -0.132895 -0.062402 7284776
0.466987 -0.133099 0.011478 7284776
-0.075450 -0.129503 0.139341 7284776
-0.037091 -0.129757 0.231691 7284776
0.432464 -0.132870 -0.071637 7284776
0.470823 -0.133124 0.020713 7284776
-0.079286 -0.129477 0.130106 7284776
-0.033255 -0.129782 0.240926 7284776
0.428628 -0.132844 -0.080872 7284776
0.474659 -0.133149 0.029948 7284776
-0.056204 -0.119630 0.185516 7284776
0.451710 -0.122997 -0.025462 7284776
0.451577 -0.142997 -0.025462 7284776
-0.056337 -0.139630 0.185516 7284776
-0.060040 -0.119605 0.176281 7284776
-0.052368 -0.119655 0.194751 7284776
0.447874 -0.122972 -0.034697 7284776
0.455546 -0.123022 -0.016227 7284776
0.455413 -0.143022 -0.016227 7284776
0.447742 -0.142971 -0.034697 7284776
-0.052501 -0.139655 0.194751 7284776
-0.060173 -0.139604 0.176281 7284776
-0.063876 -0.119579 0.167046 7284776
-0.048533 -0.119681 0.203986 7284776
0.444038 -0.122946 -0.043932 7284776
0.459382 -0.123048 -0.006992 7284776
0.459249 -0.143047 -0.006992 7284776
